# .PCD v0.7 - Point Cloud Data file format
VERSION 0.7
FIELDS x y z
SIZE 4 4 4
TYPE F F F
COUNT 1 1 1
WIDTH 1387
HEIGHT 1
VIEWPOINT 0 0 0 1 0 0 0
POINTS 1387
DATA ascii
0.085370742 0.095004342 0.39330783
0.085651971 0.094979815 0.3933523
0.085933194 0.094955295 0.39339674
0.086214416 0.094930768 0.3934412
0.086495638 0.094906248 0.39348567
0.08677686 0.094881728 0.39353013
0.08705809 0.094857201 0.39357457
0.087901756 0.094783634 0.39370796
0.089307874 0.09466102 0.39393026
0.089589097 0.0946365 0.39397469
0.089870319 0.09461198 0.39401916
0.090151541 0.094587453 0.39406362
0.090432771 0.094562933 0.39410809
0.090713985 0.094538413 0.39415255
0.090995215 0.094513886 0.39419699
0.091276437 0.094489366 0.39424145
0.091557659 0.094464846 0.39428592
0.091838881 0.094440319 0.39433038
0.092120104 0.094415799 0.39437482
0.092401333 0.094391279 0.39441928
0.092682555 0.094366752 0.39446375
0.092963777 0.094342232 0.39450821
0.093245 0.094317704 0.39455268
0.093526222 0.094293185 0.39459711
0.093807451 0.094268665 0.39464158
0.094088666 0.094244137 0.39468604
0.094369896 0.094219618 0.39473051
0.094651118 0.094195098 0.39477497
0.09493234 0.09417057 0.39481941
0.095213562 0.094146051 0.39486387
0.095494784 0.094121523 0.39490834
0.095776014 0.094097003 0.3949528
0.096057236 0.094072483 0.39499727
0.097587526 0.094105795 0.39626592
0.097869471 0.094081208 0.39631051
0.098151401 0.094056621 0.39635506
0.098433338 0.094032042 0.39639965
0.098715268 0.094007455 0.3964442
0.098997205 0.093982868 0.39648879
0.099279143 0.093958288 0.39653334
0.10025553 0.094039895 0.39771447
0.10053818 0.094015248 0.39775914
0.10082083 0.093990602 0.39780384
0.10110348 0.093965955 0.39784852
0.10138612 0.093941309 0.39789319
0.10166878 0.093916662 0.39793789
0.10195141 0.093892016 0.39798257
0.10223407 0.093867369 0.39802724
0.10251671 0.093842722 0.39807194
0.10279936 0.093818076 0.39811662
0.063370734 0.099386483 0.40319747
0.063661203 0.099361159 0.40324339
0.063951686 0.099335827 0.40328932
0.064242169 0.099310495 0.40333524
0.064493135 0.099121131 0.40234813
0.064782895 0.099095866 0.40239394
0.065072671 0.099070594 0.40243974
0.065362439 0.099045329 0.40248555
0.065609843 0.098856285 0.40149781
0.065898903 0.09883108 0.40154353
0.066187955 0.098805875 0.40158921
0.066432521 0.098617062 0.40060112
0.066720866 0.098591916 0.40064669
0.067009203 0.098566778 0.40069228
0.067250915 0.098378219 0.39970371
0.067538552 0.09835314 0.39974916
0.067826182 0.098328061 0.39979464
0.068065047 0.098139741 0.39880559
0.068351969 0.098114721 0.39885095
0.068638891 0.098089702 0.39889631
0.068925805 0.098064683 0.39894167
0.069212727 0.098039664 0.39898703
0.069499649 0.098014645 0.39903238
0.06973353 0.097826779 0.39804259
0.070019737 0.097801819 0.39808783
0.070305943 0.09777686 0.39813307
0.07059215 0.097751908 0.39817831
0.070878364 0.097726949 0.39822355
0.071164563 0.097701989 0.39826882
0.07145077 0.097677037 0.39831406
0.071678951 0.097489648 0.39732331
0.071964443 0.097464755 0.39736843
0.072249949 0.097439863 0.39741358
0.07253544 0.097414963 0.3974587
0.072820932 0.097390071 0.39750382
0.073044844 0.097203068 0.39651245
0.073329628 0.097178236 0.39655745
0.073614404 0.097153403 0.39660248
0.073899187 0.09712857 0.39664751
0.074119553 0.096941873 0.39565554
0.074403621 0.0969171 0.39570045
0.074687697 0.096892327 0.39574537
0.074971765 0.096867561 0.39579025
0.075255834 0.096842788 0.39583516
0.075539902 0.096818015 0.39588007
0.075823978 0.096793249 0.39592499
0.076108046 0.096768476 0.3959699
0.076321997 0.096582338 0.39497691
0.076605357 0.096557632 0.39502171
0.076888718 0.096532926 0.39506653
0.077172078 0.096508212 0.39511132
0.077455431 0.096483506 0.39515612
0.077738792 0.0964588 0.39520091
0.078022152 0.096434087 0.3952457
0.078305505 0.09640938 0.39529049
0.078513056 0.096223794 0.3942965
0.078795701 0.096199147 0.3943412
0.080128849 0.095915429 0.39352515
0.080410786 0.095890842 0.39356974
0.080692716 0.095866255 0.39361429
0.080974653 0.095841676 0.39365888
0.081256591 0.095817089 0.39370343
0.081538528 0.095792502 0.39374802
0.081820458 0.095767923 0.39379257
0.082017317 0.095583268 0.3927969
0.082298547 0.09555874 0.39284137
0.082579769 0.09553422 0.39288583
0.082860991 0.0955097 0.39293027
0.083142214 0.095485173 0.39297473
0.083423436 0.095460653 0.3930192
0.083704665 0.095436133 0.39306366
0.08398588 0.095411606 0.3931081
0.08426711 0.095387086 0.39315256
0.084548332 0.095362566 0.39319703
0.084829561 0.095338039 0.39324149
0.085110776 0.095313519 0.39328596
0.085391998 0.095288999 0.3933304
0.085673228 0.095264472 0.39337486
0.08595445 0.095239952 0.39341933
0.086235672 0.095215425 0.39346379
0.086516894 0.095190905 0.39350823
0.086798117 0.095166385 0.39355269
0.087079346 0.095141858 0.39359716
0.087923013 0.095068291 0.39373052
0.089329131 0.094945677 0.39395282
0.089610353 0.094921157 0.39399728
0.089891575 0.094896637 0.39404175
0.090172797 0.09487211 0.39408621
0.090454027 0.09484759 0.39413068
0.090735242 0.09482307 0.39417511
0.091016471 0.094798543 0.39421958
0.091297694 0.094774023 0.39426404
0.091578916 0.094749503 0.39430851
0.091860138 0.094724976 0.39435294
0.09214136 0.094700456 0.39439741
0.09242259 0.094675936 0.39444187
0.092703812 0.094651408 0.39448634
0.092985034 0.094626889 0.3945308
0.093828708 0.094553322 0.39466417
0.094109923 0.094528794 0.39470863
0.094391152 0.094504274 0.39475307
0.094672374 0.094479755 0.39479753
0.094953597 0.094455227 0.394842
0.095234819 0.094430707 0.39488646
0.095516041 0.09440618 0.39493093
0.097044967 0.094440348 0.39619943
0.097326905 0.094415762 0.39624399
0.097608835 0.094391182 0.39628857
0.097890779 0.094366595 0.39633313
0.098172709 0.094342008 0.39637771
0.098454647 0.094317429 0.39642227
0.099711597 0.09437529 0.3976478
0.09999425 0.094350643 0.39769247
0.10027689 0.094325997 0.39773715
0.10055954 0.09430135 0.39778185
0.10084219 0.094276704 0.39782652
0.10112484 0.094252057 0.3978712
0.10140748 0.094227411 0.3979159
0.10169014 0.094202764 0.39796057
0.10197277 0.094178118 0.39800525
0.10225543 0.094153471 0.39804995
0.10253807 0.094128825 0.39809462
0.10282072 0.094104178 0.3981393
0.06368316 0.099655189 0.40326673
0.063973643 0.099629857 0.40331265
0.064264119 0.099604525 0.40335855
0.064515039 0.099414438 0.40237138
0.0648048 0.099389173 0.40241718
0.065094575 0.099363901 0.40246299
0.065384343 0.099338636 0.4025088
0.065631688 0.099148862 0.40152103
0.065920748 0.099123657 0.40156674
0.066209801 0.099098451 0.40161243
0.066454314 0.098908924 0.40062428
0.066742659 0.098883778 0.40066984
0.067030996 0.098858632 0.40071544
0.067272656 0.098669372 0.39972678
0.067560293 0.098644279 0.39977226
0.067847915 0.0986192 0.39981773
0.068086728 0.098430172 0.3988286
0.06837365 0.098405153 0.39887396
0.068660572 0.098380134 0.39891931
0.068947487 0.098355114 0.39896467
0.069234408 0.098330095 0.39901003
0.06952133 0.098305076 0.39905539
0.069755159 0.09811648 0.39806557
0.070041366 0.09809152 0.39811081
0.070327573 0.098066561 0.39815605
0.070613779 0.098041609 0.39820129
0.070899993 0.098016649 0.39824656
0.071186192 0.09799169 0.3982918
0.071472399 0.097966738 0.39833704
0.071700528 0.097778633 0.39734623
0.07198602 0.097753741 0.39739135
0.072271518 0.097728848 0.3974365
0.07255701 0.097703949 0.39748162
0.072842509 0.097679056 0.39752677
0.073066369 0.097491339 0.39653531
0.073351152 0.097466506 0.39658031
0.073635928 0.097441673 0.39662534
0.073920712 0.09741684 0.39667037
0.074141026 0.097229414 0.39567834
0.074425094 0.097204641 0.39572325
0.07470917 0.097179875 0.39576817
0.074993238 0.097155102 0.39581308
0.075277306 0.097130328 0.39585799
0.076129518 0.097056016 0.3959927
0.07634341 0.096869156 0.39499968
0.07662677 0.09684445 0.39504448
0.076910131 0.096819744 0.39508927
0.077193491 0.09679503 0.39513406
0.077476844 0.096770324 0.39517885
0.077760205 0.096745618 0.39522365
0.078043565 0.096720904 0.39526844
0.078326918 0.096696198 0.39531323
0.080150157 0.096200809 0.3935478
0.080432087 0.096176222 0.39359236
0.080714017 0.096151635 0.39363694
0.080995962 0.096127056 0.3936815
0.081277892 0.096102469 0.39372608
0.081559837 0.096077882 0.39377064
0.081841767 0.096053302 0.39381522
0.082038566 0.095867932 0.39281949
0.082319796 0.095843412 0.39286393
0.082601018 0.095818885 0.39290839
0.08288224 0.095794365 0.39295286
0.083163463 0.095769845 0.39299732
0.083444685 0.095745318 0.39304176
0.083725914 0.095720798 0.39308622
0.084007129 0.09569627 0.39313069
0.084288359 0.095671751 0.39317515
0.084569581 0.095647231 0.39321962
0.08485081 0.095622703 0.39326406
0.085132025 0.095598184 0.39330852
0.085413247 0.095573664 0.39335299
0.085694477 0.095549136 0.39339745
0.085975699 0.095524617 0.39344192
0.086256921 0.095500089 0.39348635
0.086538143 0.095475569 0.39353082
0.086819366 0.09545105 0.39357528
0.087100595 0.095426522 0.39361975
0.08738181 0.095402002 0.39366421
0.08766304 0.095377482 0.39370865
0.087944262 0.095352955 0.39375311
0.088225491 0.095328435 0.39379758
0.088506706 0.095303915 0.39384204
0.088787928 0.095279388 0.39388648
0.089069158 0.095254868 0.39393094
0.08935038 0.095230348 0.39397541
0.089631602 0.095205821 0.39401987
0.089912824 0.095181301 0.39406434
0.090194046 0.095156774 0.39410877
0.090475276 0.095132254 0.39415324
0.090756491 0.095107734 0.3941977
0.09103772 0.095083207 0.39424217
0.091318943 0.095058687 0.3942866
0.091600165 0.095034167 0.39433107
0.091881387 0.09500964 0.39437553
0.092162609 0.09498512 0.39442
0.092443839 0.094960593 0.39446446
0.092725061 0.094936073 0.3945089
0.093006283 0.094911553 0.39455336
0.093849957 0.094837986 0.39468673
0.094131172 0.094813459 0.39473119
0.094412401 0.094788939 0.39477566
0.094693623 0.094764419 0.39482012
0.094974846 0.094739892 0.39486459
0.095256068 0.094715372 0.39490905
0.09553729 0.094690852 0.39495349
0.096784338 0.094750315 0.3961775
0.097066268 0.094725728 0.39622205
0.097348213 0.094701141 0.39626664
0.097630143 0.094676562 0.39631119
0.098194018 0.094627388 0.39640033
0.098475948 0.094602808 0.39644492
0.099450313 0.094686039 0.3976258
0.099732958 0.094661392 0.39767048
0.10001561 0.094636746 0.39771518
0.10029826 0.094612099 0.39775985
0.1005809 0.094587453 0.39780453
0.10086355 0.094562806 0.39784923
0.1011462 0.09453816 0.39789391
0.1017115 0.094488867 0.39798328
0.10199413 0.09446422 0.39802796
0.063705109 0.099949218 0.40329003
0.063995592 0.099923886 0.40333596
0.064247169 0.09973301 0.40234885
0.064536937 0.099707745 0.40239465
0.064826697 0.09968248 0.40244046
0.065116473 0.099657208 0.40248626
0.065406241 0.099631943 0.40253207
0.065653533 0.099441454 0.40154424
0.065942593 0.099416249 0.40158993
0.066476099 0.099200793 0.40064743
0.067006759 0.09898559 0.39970443
0.067294389 0.098960511 0.39974988
0.067582026 0.098935433 0.39979535
0.067869656 0.098910354 0.39984083
0.06810841 0.098720595 0.39885166
0.068395332 0.098695576 0.39889702
0.068682253 0.098670557 0.39894238
0.068969168 0.098645538 0.39898774
0.06925609 0.098620519 0.3990331
0.069543011 0.0985955 0.39907846
0.069776788 0.098406188 0.39808854
0.070062995 0.098381229 0.39813378
0.070349202 0.098356269 0.39817902
0.070635408 0.098331317 0.39822426
0.070921622 0.098306358 0.39826953
0.071207821 0.098281398 0.39831477
0.071494028 0.098256446 0.39836001
0.071722105 0.098067619 0.39736915
0.072007596 0.098042727 0.39741427
0.072293095 0.098017834 0.39745942
0.072518326 0.097829267 0.39646813
0.07280311 0.097804435 0.39651313
0.073087893 0.097779602 0.39655817
0.073372677 0.097754769 0.3966032
0.073657453 0.097729936 0.3966482
0.073942237 0.097705103 0.39669323
0.074162491 0.097516961 0.39570114
0.074446559 0.097492188 0.39574605
0.074730635 0.097467422 0.39579096
0.075014703 0.097442649 0.39583588
0.075298771 0.097417876 0.39588079
0.07558284 0.09739311 0.3959257
0.076364823 0.097155988 0.39502242
0.076648183 0.097131282 0.39506721
0.076931544 0.097106576 0.39511201
0.077214904 0.097081862 0.39515683
0.078348331 0.09698303 0.395336
0.080171458 0.096486188 0.39357042
0.080453396 0.096461602 0.39361501
0.080735326 0.096437015 0.39365956
0.081017263 0.096412435 0.39370415
0.081299201 0.096387848 0.3937487
0.081581138 0.096363261 0.39379328
0.081863068 0.096338682 0.39383784
0.082059823 0.096152589 0.39284205
0.082341053 0.096128069 0.39288652
0.082622275 0.096103542 0.39293098
0.082903497 0.096079022 0.39297545
0.083184719 0.096054502 0.39301988
0.083465941 0.096029975 0.39306435
0.083747171 0.096005455 0.39310881
0.084028386 0.095980927 0.39315328
0.084309615 0.095956407 0.39319775
0.084590837 0.095931888 0.39324218
0.084872067 0.09590736 0.39328665
0.085153282 0.09588284 0.39333111
0.085434504 0.095858321 0.39337558
0.085715733 0.095833793 0.39342001
0.085996956 0.095809273 0.39346448
0.086840622 0.095735706 0.39359787
0.087121852 0.095711179 0.39364231
0.087403066 0.095686659 0.39368677
0.087684296 0.095662139 0.39373124
0.087965518 0.095637612 0.3937757
0.088246748 0.095613092 0.39382014
0.088527963 0.095588572 0.3938646
0.088809185 0.095564045 0.39390907
0.089090414 0.095539525 0.39395353
0.089371637 0.095515005 0.393998
0.089652859 0.095490478 0.39404243
0.089934081 0.095465958 0.3940869
0.090215303 0.095441431 0.39413136
0.090496533 0.095416911 0.39417583
0.090777747 0.095392391 0.39422026
0.091058977 0.095367864 0.39426473
0.091340199 0.095343344 0.39430919
0.091621421 0.095318824 0.39435366
0.091902643 0.095294297 0.39439812
0.092183866 0.095269777 0.39444256
0.092465095 0.09524525 0.39448702
0.092746317 0.09522073 0.39453149
0.093871213 0.095122643 0.39470932
0.094152428 0.095098116 0.39475378
0.094433658 0.095073596 0.39479825
0.09471488 0.095049076 0.39484271
0.094996102 0.095024548 0.39488715
0.095277324 0.095000029 0.39493161
0.095558546 0.094975509 0.39497608
0.096241772 0.095084861 0.39611098
0.09652371 0.095060274 0.39615557
0.096805647 0.095035695 0.39620012
0.097087577 0.095011108 0.3962447
0.097369514 0.094986521 0.39628926
0.097651444 0.094961941 0.39633384
0.098215319 0.094912767 0.39642298
0.099189028 0.094996788 0.39760381
0.099471673 0.094972141 0.39764848
0.099754319 0.094947495 0.39769319
0.10003697 0.094922848 0.39773786
0.10031962 0.094898202 0.39778253
0.10060226 0.094873555 0.39782724
0.10088491 0.094848908 0.39787191
0.10116756 0.094824262 0.39791659
0.10158379 0.094956905 0.39900929
0.10173286 0.094774969 0.39800596
0.06343659 0.10026857 0.40326744
0.063727066 0.10024325 0.40331337
0.064017549 0.10021792 0.40335929
0.064269066 0.10002632 0.40237209
0.064558834 0.10000106 0.4024179
0.064848594 0.099975795 0.4024637
0.065097272 0.099784456 0.40147606
0.065386333 0.099759251 0.40152174
0.065675378 0.099734046 0.40156746
0.065921202 0.099542946 0.40057939
0.066209547 0.0995178 0.40062499
0.066497892 0.099492662 0.40067056
0.067028493 0.099276744 0.39972749
0.067316122 0.099251665 0.39977297
0.067603759 0.099226572 0.39981845
0.067891389 0.099201493 0.39986393
0.068130098 0.099011026 0.39887467
0.06841702 0.098986007 0.39892003
0.068703942 0.098960988 0.39896539
0.068990856 0.098935969 0.39901075
0.069277778 0.09891095 0.39905611
0.069512211 0.098720841 0.39806625
0.069798417 0.098695889 0.39811152
0.070084624 0.09867093 0.39815676
0.070370831 0.09864597 0.398202
0.070657037 0.098621018 0.39824724
0.070943251 0.098596059 0.39829251
0.071172692 0.098406397 0.39730179
0.071458183 0.098381504 0.39734694
0.071743682 0.098356605 0.39739206
0.072029173 0.098331712 0.39743721
0.072314672 0.09830682 0.39748234
0.072539844 0.09811753 0.39649099
0.072824627 0.098092698 0.39653602
0.073109411 0.098067865 0.39658102
0.073394194 0.098043032 0.39662606
0.07367897 0.098018199 0.39667109
0.073963754 0.097993366 0.39671609
0.074183956 0.097804502 0.39572397
0.074468024 0.097779728 0.39576888
0.0747521 0.097754955 0.39581379
0.075036168 0.09773019 0.39585868
0.075320236 0.097705416 0.39590359
0.075604305 0.097680643 0.3959485
0.07588838 0.097655877 0.39599341
0.07610289 0.097467519 0.39500037
0.076386236 0.097442806 0.39504519
0.076669596 0.0974181 0.39508998
0.076952957 0.097393394 0.39513478
0.077236317 0.09736868 0.39517957
0.077519678 0.097343974 0.39522436
0.077803038 0.097319268 0.39526916
0.078086399 0.097294554 0.39531395
0.078369744 0.097269848 0.39535874
0.080192767 0.096771568 0.39359307
0.080474705 0.096746981 0.39363763
0.080756634 0.096722394 0.39368221
0.081038572 0.096697815 0.39372677
0.081320509 0.096673228 0.39377135
0.081602447 0.096648641 0.3938159
0.081884377 0.096624061 0.39386049
0.082081072 0.096437253 0.39286464
0.082362302 0.096412726 0.39290911
0.082643524 0.096388206 0.39295354
0.082924746 0.096363686 0.39299801
0.083205968 0.096339159 0.39304247
0.08348719 0.096314639 0.39308694
0.08376842 0.096290119 0.39313141
0.084049635 0.096265592 0.39317584
0.084330864 0.096241072 0.39322031
0.084612086 0.096216552 0.39326477
0.084893316 0.096192025 0.39330924
0.085174531 0.096167505 0.39335367
0.085455753 0.096142985 0.39339814
0.085736983 0.096118458 0.3934426
0.086580649 0.096044891 0.39357597
0.086861871 0.096020371 0.39362043
0.087143101 0.095995843 0.3936649
0.087424316 0.095971324 0.39370936
0.087705545 0.095946804 0.39375383
0.087986767 0.095922276 0.39379826
0.088267997 0.095897757 0.39384273
0.088549212 0.095873229 0.39388719
0.088830434 0.095848709 0.39393166
0.089111663 0.095824189 0.39397612
0.089392886 0.095799662 0.39402056
0.089674108 0.095775142 0.39406502
0.08995533 0.095750622 0.39410949
0.090236552 0.095726095 0.39415395
0.090517782 0.095701575 0.39419839
0.090798996 0.095677055 0.39424285
0.091080226 0.095652528 0.39428732
0.091361448 0.095628008 0.39433178
0.09164267 0.095603488 0.39437625
0.091923892 0.095578961 0.39442068
0.092205115 0.095554441 0.39446515
0.092486344 0.095529921 0.39450961
0.092767566 0.095505394 0.39455408
0.093892463 0.095407307 0.39473191
0.094454907 0.09535826 0.39482081
0.094736129 0.09533374 0.39486527
0.095017351 0.095309213 0.39490974
0.095298573 0.095284693 0.3949542
0.096263081 0.095370241 0.39613363
0.096545018 0.095345661 0.39617819
0.096826956 0.095321074 0.39622277
0.097108886 0.095296487 0.39626732
0.097390823 0.0952719 0.39631191
0.097672753 0.095247321 0.39635646
0.098645091 0.095332183 0.39753714
0.098927744 0.095307536 0.39758182
0.099210389 0.09528289 0.39762649
0.099493034 0.095258243 0.39767119
0.10018841 0.095367268 0.39880806
0.10047177 0.095342562 0.39885285
0.10075513 0.095317848 0.39889765
0.10103849 0.095293142 0.39894244
0.10132185 0.095268436 0.39898726
0.10160521 0.095243722 0.39903206
0.10188857 0.095219016 0.39907685
0.060935639 0.10129375 0.40597293
0.061228253 0.10126822 0.40601918
0.061520867 0.10124271 0.40606543
0.06345854 0.1005626 0.40329078
0.063749015 0.10053728 0.40333667
0.064039499 0.10051195 0.4033826
0.064329974 0.10048661 0.40342852
0.064580731 0.10029437 0.40244117
0.064870492 0.1002691 0.40248698
0.065119117 0.10007703 0.40149927
0.065408178 0.10005183 0.40154496
0.065697223 0.10002662 0.40159068
0.065942995 0.099834815 0.40060255
0.06623134 0.099809669 0.40064815
0.066519685 0.099784531 0.40069371
0.066762604 0.099592976 0.39970514
0.0676255 0.099517725 0.39984155
0.06791313 0.099492647 0.39988703
0.068151779 0.099301443 0.39889771
0.068438701 0.099276423 0.39894307
0.068725623 0.099251404 0.39898843
0.069012538 0.099226385 0.39903378
0.069299459 0.099201366 0.39907914
0.06953384 0.099010549 0.39808926
0.069820046 0.098985597 0.3981345
0.070106253 0.098960638 0.39817974
0.07039246 0.098935679 0.39822498
0.070678666 0.098910727 0.39827022
0.07096488 0.098885767 0.39831549
0.071194269 0.098695375 0.39732471
0.07147976 0.098670483 0.39736986
0.071765259 0.098645583 0.39741498
0.07205075 0.09862069 0.39746013
0.072336249 0.098595798 0.39750525
0.072561368 0.098405786 0.39651385
0.072846152 0.098380953 0.39655888
0.073130935 0.09835612 0.39660391
0.073415719 0.098331288 0.39664891
0.073700495 0.098306455 0.39669394
0.073985279 0.098281622 0.39673898
0.074205428 0.098092049 0.39574677
0.074489497 0.098067276 0.39579168
0.074773572 0.098042503 0.39583659
0.075057641 0.098017737 0.3958815
0.075341709 0.097992964 0.39592642
0.075625777 0.097968191 0.39597133
0.075909853 0.097943425 0.39601621
0.076124303 0.097754337 0.39502314
0.076407656 0.097729623 0.39506793
0.076691017 0.097704917 0.39511272
0.076974377 0.097680211 0.39515752
0.077257738 0.097655497 0.39520231
0.077541091 0.097630791 0.3952471
0.077824451 0.097606085 0.39529189
0.078107812 0.097581372 0.39533672
0.078598499 0.097368211 0.39438727
0.080214076 0.097056948 0.39361569
0.080496013 0.097032361 0.39366028
0.080777943 0.097007774 0.39370483
0.081059881 0.096983194 0.39374942
0.081341818 0.096958607 0.39379397
0.081623755 0.096934021 0.39383855
0.081905685 0.096909441 0.39388314
0.082102329 0.09672191 0.3928872
0.082383558 0.096697383 0.39293167
0.082664773 0.096672863 0.39297614
0.082946002 0.096648343 0.3930206
0.083227217 0.096623816 0.39306507
0.083508447 0.096599296 0.3931095
0.083789676 0.096574776 0.39315397
0.084070891 0.096550249 0.39319843
0.084352121 0.096525729 0.3932429
0.084633335 0.096501209 0.39328733
0.084914565 0.096476682 0.3933318
0.08519578 0.096452162 0.39337626
0.085477009 0.096427642 0.39342073
0.085758239 0.096403114 0.39346519
0.086601898 0.096329547 0.39359856
0.086883128 0.096305028 0.39364302
0.087164357 0.0962805 0.39368749
0.087445572 0.09625598 0.39373192
0.087726802 0.096231461 0.39377639
0.088008016 0.096206933 0.39382085
0.088289246 0.096182413 0.39386532
0.088570461 0.096157886 0.39390978
0.08885169 0.096133366 0.39395422
0.08913292 0.096108846 0.39399868
0.089414135 0.096084319 0.39404315
0.089695364 0.096059799 0.39408761
0.089976579 0.096035279 0.39413205
0.090257809 0.096010752 0.39417651
0.090539038 0.095986232 0.39422098
0.090820253 0.095961712 0.39426544
0.091101483 0.095937185 0.39430991
0.091382697 0.095912665 0.39435434
0.091663927 0.095888145 0.39439881
0.091945142 0.095863618 0.39444327
0.092226371 0.095839098 0.39448774
0.092507601 0.095814578 0.39453217
0.092788815 0.095790051 0.39457664
0.093070045 0.095765531 0.3946211
0.09335126 0.095741004 0.39466557
0.093913719 0.095691964 0.39475447
0.094194934 0.095667437 0.39479893
0.094476163 0.095642917 0.3948434
0.095720522 0.095704794 0.39606711
0.096002452 0.095680207 0.3961117
0.096284389 0.09565562 0.39615625
0.096566327 0.095631033 0.39620084
0.096848264 0.095606454 0.39624539
0.098101161 0.095667586 0.39747047
0.098383807 0.095642939 0.39751515
0.098666452 0.095618293 0.39755982
0.098949105 0.095593646 0.39760453
0.09923175 0.095569 0.3976492
0.099926472 0.095678799 0.39878601
0.10020983 0.095654085 0.3988308
0.10049319 0.095629379 0.39887562
0.10077655 0.095604666 0.39892042
0.10105991 0.095579959 0.39896521
0.10134327 0.095555253 0.39901
0.10162663 0.09553054 0.3990548
0.10190999 0.095505834 0.39909959
0.060665138 0.10161545 0.40595016
0.060957752 0.10158994 0.40599641
0.061250366 0.10156441 0.40604267
0.06154298 0.1015389 0.40608895
0.061835594 0.10151339 0.4061352
0.062094845 0.10131967 0.4051491
0.062386744 0.10129422 0.40519527
0.062935039 0.10107531 0.40425488
0.06322623 0.10104992 0.40430093
0.063480489 0.10085663 0.40331408
0.063770965 0.10083131 0.40336001
0.064061448 0.10080598 0.40340593
0.064351924 0.10078064 0.40345186
0.064602628 0.10058767 0.40246445
0.064892389 0.10056241 0.40251026
0.065140963 0.10036962 0.40152249
0.065430023 0.10034442 0.40156817
0.065719068 0.10031921 0.40161386
0.065964788 0.10012668 0.40062571
0.066253133 0.10010154 0.40067127
0.066541478 0.10007639 0.40071687
0.066784337 0.099884115 0.39972821
0.067647234 0.099808864 0.39986464
0.067934863 0.099783786 0.39991012
0.068173461 0.099591874 0.39892074
0.068460383 0.099566855 0.3989661
0.068747304 0.099541835 0.39901146
0.069034219 0.099516816 0.39905682
0.069321141 0.099491797 0.39910218
0.069555469 0.09930025 0.39811224
0.069841675 0.099275298 0.39815748
0.070127882 0.099250339 0.39820272
0.070414089 0.09922538 0.39824796
0.070700295 0.099200428 0.39829323
0.070986509 0.099175468 0.39833847
0.071215838 0.098984361 0.39734766
0.07150133 0.098959468 0.39739278
0.071786836 0.098934568 0.3974379
0.072072327 0.098909676 0.39748305
0.072357818 0.098884784 0.39752817
0.072582886 0.098694049 0.39653671
0.072867669 0.098669216 0.39658174
0.073152453 0.098644383 0.39662677
0.073437236 0.09861955 0.39667177
0.074226893 0.098379582 0.39576957
0.074510962 0.098354809 0.39581448
0.074795038 0.098330036 0.39585939
0.075079106 0.09830527 0.3959043
0.075363174 0.098280497 0.39594921
0.075647242 0.098255724 0.39599413
0.075931318 0.098230958 0.39603904
0.076145716 0.098041154 0.39504588
0.076429069 0.098016441 0.39509067
0.07671243 0.097991735 0.39513546
0.07699579 0.097967029 0.39518026
0.07727915 0.097942315 0.39522508
0.077562504 0.097917609 0.39526987
0.077845864 0.097892903 0.39531466
0.078054562 0.097703606 0.39432061
0.078337207 0.097678959 0.39436528
0.07861986 0.097654313 0.39440998
0.080235377 0.097342335 0.39363834
0.080517314 0.097317748 0.3936829
0.080799244 0.097293161 0.39372748
0.081081182 0.097268581 0.39377204
0.081363119 0.097243994 0.39381662
0.081645057 0.097219408 0.3938612
0.081926987 0.097194828 0.39390576
0.082123578 0.097006574 0.3929098
0.082404807 0.096982054 0.39295426
0.082686029 0.096957527 0.39299873
0.082967252 0.096933007 0.39304319
0.083248474 0.096908487 0.39308763
0.083529696 0.09688396 0.39313209
0.083810925 0.09685944 0.39317656
0.08409214 0.096834913 0.39322102
0.08437337 0.096810393 0.39326546
0.084654592 0.096785873 0.39330992
0.084935822 0.096761346 0.39335439
0.085217036 0.096736826 0.39339885
0.085498258 0.096712306 0.39344332
0.085779488 0.096687779 0.39348775
0.086623155 0.096614212 0.39362115
0.086904377 0.096589692 0.39366558
0.087185606 0.096565165 0.39371005
0.087466821 0.096540645 0.39375451
0.087748051 0.096516125 0.39379898
0.088029273 0.096491598 0.39384344
0.088310502 0.096467078 0.39388788
0.088591717 0.096442558 0.39393234
0.088872939 0.096418031 0.39397681
0.089154169 0.096393511 0.39402127
0.089435391 0.096368991 0.39406571
0.089716613 0.096344464 0.39411017
0.089997835 0.096319944 0.39415464
0.090279058 0.096295416 0.3941991
0.090560287 0.096270896 0.39424357
0.090841502 0.096246377 0.394288
0.091122732 0.096221849 0.39433247
0.091403954 0.096197329 0.39437693
0.091685176 0.09617281 0.3944214
0.091966398 0.096148282 0.39446586
0.09224762 0.096123762 0.3945103
0.09252885 0.096099235 0.39455476
0.092810072 0.096074715 0.39459923
0.093091294 0.096050195 0.39464369
0.093372516 0.096025668 0.39468816
0.093934968 0.095976628 0.39477706
0.094216183 0.095952101 0.39482152
0.095177948 0.096039347 0.39600059
0.095459886 0.09601476 0.39604518
0.095741823 0.095990181 0.39608976
0.096023753 0.095965594 0.39613432
0.096305691 0.095941007 0.3961789
0.096587628 0.09591642 0.39622346
0.096869566 0.095891841 0.39626804
0.097557232 0.096002981 0.39740378
0.09783987 0.095978335 0.39744848
0.098122522 0.095953688 0.39749315
0.098405167 0.095929042 0.39753783
0.098687813 0.095904395 0.39758253
0.098970465 0.095879748 0.3976272
0.099253111 0.095855102 0.39767188
0.099664524 0.095990323 0.39876398
0.099947885 0.095965616 0.39880878
0.10023125 0.095940903 0.39885357
0.10051461 0.095916197 0.39889836
0.10079796 0.095891483 0.39894316
0.10108133 0.095866777 0.39898795
0.10136469 0.095842071 0.39903274
0.10164804 0.095817357 0.39907753
0.1019314 0.095792651 0.39912236
0.060394637 0.10193715 0.40592739
0.060687251 0.10191164 0.40597364
0.060979865 0.10188613 0.40601993
0.06127248 0.10186061 0.40606618
0.061565094 0.10183509 0.40611243
0.061857708 0.10180958 0.40615869
0.062116906 0.10161515 0.40517256
0.062408805 0.10158969 0.40521869
0.062957041 0.10137006 0.40427828
0.063248232 0.10134467 0.40432432
0.063502446 0.10115065 0.40333742
0.063792922 0.10112533 0.40338331
0.064083405 0.1011 0.40342924
0.064334758 0.10090625 0.40244189
0.064624526 0.10088098 0.4024877
0.064914286 0.10085572 0.4025335
0.065162808 0.10066222 0.40154567
0.065451868 0.10063701 0.40159139
0.065698236 0.1004437 0.40060326
0.065986574 0.10041855 0.40064886
0.066274919 0.10039341 0.40069443
0.066563264 0.10036827 0.40074003
0.066806078 0.10017525 0.39975131
0.067381337 0.1001251 0.39984226
0.067668974 0.1001 0.39988774
0.067956604 0.10007492 0.39993319
0.068195142 0.099882297 0.39894378
0.068482064 0.099857278 0.39898914
0.068768986 0.099832259 0.3990345
0.0690559 0.09980724 0.39907986
0.069342822 0.099782221 0.39912522
0.069577098 0.099589959 0.39813522
0.069863304 0.099565007 0.39818045
0.070149511 0.099540047 0.39822569
0.070435718 0.099515088 0.39827093
0.070721924 0.099490136 0.3983162
0.070951909 0.099298246 0.39732543
0.071237415 0.099273354 0.39737058
0.071522906 0.099248461 0.3974157
0.071808405 0.099223562 0.39746085
0.072034843 0.099031977 0.39646953
0.072319627 0.099007145 0.39651456
0.07260441 0.098982312 0.3965596
0.072889194 0.098957479 0.3966046
0.073173977 0.098932646 0.39664963
0.073458761 0.098907813 0.39669466
0.074816503 0.098617584 0.39588222
0.075100571 0.098592818 0.3959271
0.075384639 0.098568045 0.39597201
0.075668707 0.098543271 0.39601693
0.075952783 0.098518506 0.39606184
0.076167129 0.098327987 0.39506865
0.076450482 0.098303273 0.39511344
0.076733842 0.098278567 0.39515823
0.077300563 0.098229147 0.39524782
0.077583916 0.098204441 0.39529261
0.077867277 0.098179735 0.3953374
0.078075923 0.097989701 0.39434332
0.078358568 0.097965054 0.39438799
0.078641213 0.097940408 0.39443266
0.078923859 0.097915761 0.39447737
0.079206504 0.097891115 0.39452204
0.079489164 0.097866468 0.39456671
0.080256686 0.097627707 0.39366096
0.080538623 0.09760312 0.39370555
0.080820553 0.097578533 0.3937501
0.08110249 0.097553954 0.39379469
0.081384428 0.097529367 0.39383927
0.081666365 0.09750478 0.39388382
0.081948295 0.0974802 0.39392841
0.082230233 0.097455613 0.39397296
0.082426056 0.097266711 0.39297685
0.082707286 0.097242184 0.39302129
0.08326973 0.097193144 0.39311022
0.083550945 0.097168617 0.39315468
0.083832175 0.097144097 0.39319912
0.084113389 0.09711957 0.39324358
0.084394619 0.09709505 0.39328805
0.084675848 0.09707053 0.39333251
0.084957078 0.097046003 0.39337698
0.085238293 0.097021483 0.39342141
0.085519508 0.096996963 0.39346588
0.085800737 0.096972436 0.39351034
0.086081967 0.096947916 0.39355481
0.086363181 0.096923389 0.39359927
0.086644411 0.096898869 0.39364371
0.086925626 0.096874349 0.39368817
0.087206855 0.096849822 0.39373264
0.08748807 0.096825302 0.3937771
0.0877693 0.096800782 0.39382157
0.088050529 0.096776254 0.393866
0.088331759 0.096751735 0.39391047
0.088612974 0.096727215 0.39395493
0.088894188 0.096702687 0.3939994
0.089175418 0.096678168 0.39404383
0.089456648 0.096653648 0.3940883
0.089737862 0.09662912 0.39413276
0.090019092 0.096604601 0.39417723
0.090300307 0.096580073 0.39422169
0.090581536 0.096555553 0.39426613
0.090862751 0.096531034 0.39431059
0.091143981 0.096506506 0.39435506
0.09142521 0.096481986 0.39439952
0.091706425 0.096457466 0.39444396
0.091987655 0.096432939 0.39448842
0.092268869 0.096408419 0.39453289
0.092550099 0.096383892 0.39457735
0.092831329 0.096359372 0.39462182
0.093112543 0.096334852 0.39466625
0.093393773 0.096310325 0.39471072
0.093674988 0.096285805 0.39475518
0.09491732 0.096349306 0.39597866
0.095199257 0.096324719 0.39602324
0.095481195 0.096300133 0.39606783
0.095763132 0.096275553 0.39611238
0.096045062 0.096250966 0.39615697
0.096326999 0.096226379 0.39620152
0.096608937 0.096201792 0.39624611
0.097295932 0.096313722 0.39738181
0.097578593 0.096289076 0.39742649
0.097861223 0.096264429 0.39747116
0.098143883 0.096239783 0.39751586
0.098426528 0.096215136 0.39756054
0.098709174 0.09619049 0.39760521
0.099119224 0.096326575 0.39869714
0.099402584 0.096301861 0.39874193
0.099685937 0.096277155 0.39878672
0.099969298 0.096252449 0.39883152
0.10025266 0.096227735 0.39887631
0.10053602 0.096203029 0.3989211
0.10081937 0.096178316 0.39896592
0.10110274 0.096153609 0.39901072
0.1013861 0.096128903 0.39905551
0.10166945 0.09610419 0.3991003
0.10195281 0.096079484 0.3991451
0.060124137 0.10225887 0.40590462
0.060416751 0.10223334 0.40595087
0.060709365 0.10220783 0.40599716
0.061001979 0.10218232 0.40604341
0.061294593 0.1021568 0.40608966
0.061587207 0.10213128 0.40613592
0.06213896 0.10191061 0.40519598
0.062430859 0.10188516 0.40524212
0.06297905 0.1016648 0.40430164
0.063270241 0.10163941 0.40434769
0.063524395 0.10144469 0.40336072
0.063814871 0.10141937 0.40340665
0.064105354 0.10139403 0.40345258
0.064356655 0.10119955 0.40246516
0.064646423 0.10117429 0.40251097
0.065184653 0.10095479 0.40156889
0.065473713 0.10092959 0.40161458
0.065720029 0.10073556 0.40062642
0.066008367 0.10071041 0.40067199
0.066296712 0.10068528 0.40071759
0.066585056 0.10066013 0.40076318
0.066827811 0.10046641 0.3997744
0.067403071 0.10041624 0.39986536
0.067690708 0.10039116 0.39991084
0.067978337 0.10036608 0.39995629
0.06821683 0.10017272 0.39896682
0.068503752 0.1001477 0.39901218
0.068790674 0.10012268 0.39905754
0.069077589 0.10009766 0.3991029
0.06936451 0.10007264 0.39914826
0.069598727 0.09987966 0.39815819
0.069884934 0.099854708 0.39820343
0.07017114 0.099829748 0.39824867
0.070457347 0.099804789 0.39829391
0.070743553 0.099779837 0.39833918
0.070973486 0.099587224 0.39734834
0.071258992 0.099562332 0.39739349
0.071544483 0.09953744 0.39743862
0.071829982 0.09951254 0.39748377
0.072056361 0.09932024 0.39649239
0.072341144 0.099295408 0.39653742
0.072625928 0.099270575 0.39658245
0.072910711 0.099245742 0.39662746
0.073195495 0.099220909 0.39667249
0.073480278 0.099196076 0.39671752
0.074553899 0.098929904 0.39586011
0.074837975 0.098905131 0.39590502
0.075122043 0.098880365 0.39594993
0.075406112 0.098855592 0.39599484
0.07569018 0.098830819 0.39603975
0.075974256 0.098806053 0.39608464
0.076188542 0.098614804 0.39509138
0.076471895 0.098590091 0.39513618
0.076755255 0.098565385 0.39518097
0.077038616 0.098540679 0.39522576
0.077321976 0.098515965 0.39527056
0.07788869 0.098466553 0.39536017
0.078097276 0.098275803 0.394366
0.078379922 0.098251157 0.39441067
0.078662574 0.09822651 0.39445537
0.07894522 0.098201863 0.39450005
0.079227865 0.098177217 0.39454472
0.079510517 0.09815257 0.39458942
0.079793163 0.098127924 0.3946341
0.080075808 0.098103277 0.39467877
0.080277994 0.097913094 0.39368361
0.080559932 0.097888507 0.39372817
0.080841862 0.09786392 0.39377275
0.081123799 0.097839341 0.39381734
0.081405737 0.097814754 0.39386189
0.081687674 0.097790167 0.39390647
0.081969604 0.097765587 0.39395103
0.082251541 0.097741 0.39399561
0.082447313 0.097551368 0.39299941
0.082728535 0.097526848 0.39304388
0.083009757 0.097502328 0.39308834
0.083290979 0.097477801 0.39313281
0.083572201 0.097453281 0.39317724
0.083853431 0.097428761 0.39322171
0.084134646 0.097404234 0.39326617
0.084415875 0.097379714 0.39331064
0.084697098 0.097355194 0.3933551
0.084978327 0.097330667 0.39339954
0.085259542 0.097306147 0.393444
0.085540764 0.097281627 0.39348847
0.085821994 0.0972571 0.39353293
0.086103216 0.09723258 0.39357737
0.086384438 0.097208053 0.39362183
0.08666566 0.097183533 0.3936663
0.086946882 0.097159013 0.39371076
0.087228112 0.097134486 0.39375523
0.087509327 0.097109966 0.39379966
0.088353008 0.097036399 0.39393306
0.088634223 0.097011872 0.39397749
0.088915445 0.096987352 0.39402196
0.089196675 0.096962832 0.39406642
0.089477897 0.096938305 0.39411089
0.089759119 0.096913785 0.39415535
0.090040341 0.096889265 0.39419979
0.090321563 0.096864738 0.39424425
0.090602793 0.096840218 0.39428872
0.090884008 0.096815698 0.39433318
0.091165237 0.096791171 0.39437765
0.091446459 0.096766651 0.39442208
0.091727681 0.096742131 0.39446655
0.092290126 0.096693084 0.39455548
0.092571355 0.096668564 0.39459991
0.092852578 0.096644036 0.39464438
0.0931338 0.096619517 0.39468884
0.093415022 0.096594989 0.39473331
0.094656691 0.096659273 0.39595672
0.094938628 0.096634693 0.39600131
0.095220566 0.096610107 0.39604589
0.095502503 0.09658552 0.39609045
0.095784441 0.09656094 0.39613503
0.096066371 0.096536353 0.39617959
0.096752003 0.096649118 0.39731511
0.097034641 0.096624471 0.39735982
0.097317293 0.096599825 0.39740449
0.097599946 0.096575178 0.39744917
0.097882584 0.096550532 0.39749387
0.098165236 0.096525885 0.39753854
0.098447882 0.096501239 0.39758322
0.099140637 0.096613392 0.39871988
0.099423997 0.096588679 0.39876467
0.09970735 0.096563973 0.39880946
0.099990711 0.096539266 0.39885429
0.10027407 0.096514553 0.39889908
0.10055743 0.096489847 0.39894387
0.10084078 0.096465133 0.39898866
0.10112415 0.096440427 0.39903346
0.10140751 0.096415721 0.39907825
0.10169087 0.096391007 0.39912304
0.06014625 0.10255506 0.40592813
0.060438864 0.10252953 0.40597439
0.061316706 0.10245299 0.40611318
0.061577208 0.102257 0.40512714
0.061869115 0.10223154 0.40517327
0.062161021 0.10220609 0.40521941
0.06245292 0.10218064 0.40526557
0.063001052 0.10195956 0.40432504
0.063292243 0.10193417 0.40437108
0.063546345 0.10173871 0.40338406
0.06383682 0.10171339 0.40342999
0.06437856 0.10149287 0.40248844
0.064917438 0.10127259 0.40154639
0.06520649 0.10124739 0.40159211
0.065495558 0.10122218 0.40163779
0.065741822 0.10102742 0.40064958
0.06603016 0.10100228 0.40069515
0.066318505 0.10097713 0.40074074
0.066849552 0.10075755 0.3997975
0.067137182 0.10073247 0.39984298
0.067424811 0.10070739 0.39988846
0.067712449 0.1006823 0.3999339
0.067951597 0.10048817 0.3989445
0.068238512 0.10046315 0.39898986
0.068525434 0.10043813 0.39903522
0.068812355 0.10041311 0.39908057
0.069047943 0.10021929 0.39809066
0.069334149 0.10019433 0.39813593
0.069620356 0.10016937 0.39818117
0.069906563 0.10014442 0.39822641
0.070192769 0.10011946 0.39827165
0.070424072 0.099926002 0.39728102
0.070709571 0.09990111 0.39732614
0.070995063 0.099876218 0.39737126
0.071280569 0.099851318 0.39741641
0.07156606 0.099826425 0.39746153
0.071851559 0.099801525 0.39750668
0.072077885 0.099608511 0.39651528
0.072362669 0.099583678 0.39656028
0.072647452 0.099558845 0.39660531
0.072932236 0.099534012 0.39665034
0.073217019 0.09950918 0.39669535
0.073501803 0.099484347 0.39674038
0.073786579 0.099459514 0.39678541
0.07485944 0.099192664 0.39592782
0.075143509 0.099167898 0.39597273
0.075427577 0.099143125 0.39601764
0.075711645 0.099118352 0.39606255
0.075995721 0.099093586 0.39610747
0.076209955 0.098901622 0.39511412
0.076493308 0.098876908 0.39515892
0.076776668 0.098852202 0.39520374
0.077060029 0.098827496 0.39524853
0.077343389 0.098802783 0.39529333
0.077910103 0.09875337 0.39538291
0.078118637 0.098561905 0.39438871
0.078401282 0.098537259 0.39443338
0.078683935 0.098512612 0.39447805
0.07896658 0.098487966 0.39452276
0.079249226 0.098463319 0.39456743
0.079531878 0.098438673 0.3946121
0.079814523 0.098414026 0.39465681
0.080097169 0.09838938 0.39470148
0.080299295 0.098198473 0.39370623
0.080581233 0.098173887 0.39375082
0.080863163 0.0981493 0.3937954
0.0811451 0.09812472 0.39383996
0.081427038 0.098100133 0.39388454
0.081708975 0.098075546 0.39392909
0.081990905 0.098050967 0.39397368
0.082272843 0.09802638 0.39401823
0.082468562 0.097836025 0.393022
0.082749784 0.097811505 0.39306647
0.083031006 0.097786985 0.3931109
0.083312228 0.097762458 0.39315537
0.08359345 0.097737938 0.39319983
0.08387468 0.097713418 0.3932443
0.084155895 0.097688891 0.39328876
0.084437124 0.097664371 0.3933332
0.084718347 0.097639851 0.39337766
0.084999576 0.097615324 0.39342213
0.085280791 0.097590804 0.39346659
0.085562013 0.097566284 0.39351103
0.085843243 0.097541757 0.39355549
0.086124465 0.097517237 0.39359996
0.086405687 0.09749271 0.39364442
0.086686909 0.09746819 0.39368889
0.086968131 0.09744367 0.39373332
0.087249361 0.097419143 0.39377779
0.087530576 0.097394623 0.39382225
0.088093027 0.097345576 0.39391115
0.088374257 0.097321056 0.39395562
0.088655472 0.097296529 0.39400008
0.088936694 0.097272009 0.39404455
0.089217924 0.097247489 0.39408901
0.089499146 0.097222961 0.39413345
0.089780368 0.097198442 0.39417791
0.09006159 0.097173922 0.39422238
0.090342812 0.097149394 0.39426684
0.090624042 0.097124875 0.39431131
0.090905257 0.097100355 0.39435574
0.091186486 0.097075827 0.39440021
0.091467708 0.097051308 0.39444467
0.092030153 0.09700226 0.3945336
0.092311375 0.096977741 0.39457804
0.092592604 0.096953221 0.3946225
0.092873827 0.096928693 0.39466697
0.093155049 0.096904173 0.39471143
0.093436271 0.096879646 0.39475587
0.094114125 0.096993826 0.39589024
0.094396062 0.096969239 0.39593479
0.094677992 0.096944652 0.39597937
0.09495993 0.096920073 0.39602396
0.095241867 0.096895486 0.39606851
0.095523804 0.096870899 0.3961131
0.095805742 0.096846312 0.39615765
0.096087672 0.096821733 0.39620224
0.096490711 0.096959874 0.39729312
0.096773364 0.09693522 0.39733782
0.097056001 0.096910574 0.3973825
0.097338654 0.096885927 0.39742717
0.097621307 0.096861281 0.39747187
0.097903945 0.096836634 0.39751655
0.098186597 0.096811987 0.39756122
0.098469242 0.096787341 0.39760593
0.098878689 0.096924916 0.39869782
0.09916205 0.09690021 0.39874265
0.09944541 0.096875496 0.39878744
0.099728763 0.09685079 0.39883223
0.10001212 0.096826084 0.39887702
0.10029548 0.09680137 0.39892182
0.10057884 0.096776664 0.39896661
0.1008622 0.096751951 0.3990114
0.10114557 0.096727245 0.3990562
0.060168363 0.10285125 0.40595162
0.060460977 0.10282574 0.40599787
0.060753591 0.10280023 0.40604413
0.061046205 0.1027747 0.40609041
0.06133882 0.10274919 0.40613666
0.06159927 0.10255246 0.40515056
0.061891176 0.102527 0.4051967
0.062183082 0.10250155 0.40524286
0.062440678 0.10230509 0.40425634
0.06273187 0.1022797 0.40430239
0.063023061 0.10225431 0.4043484
0.063314252 0.10222892 0.40439445
0.064110689 0.10181144 0.40246588
0.064400457 0.10178617 0.40251169
0.064650223 0.10159039 0.40152392
0.064939275 0.10156518 0.4015696
0.065228336 0.10153998 0.40161529
0.065517396 0.10151477 0.40166101
0.067446545 0.10099854 0.39991155
0.067734182 0.10097345 0.399957
0.067973278 0.10077859 0.39896753
0.068260193 0.10075357 0.39901289
0.068547115 0.10072855 0.39905825
0.068834037 0.10070353 0.39910361
0.069069572 0.10050899 0.39811364
0.069355778 0.10048403 0.39815891
0.069641985 0.10045907 0.39820415
0.069928192 0.10043412 0.39824939
0.070214398 0.10040916 0.39829463
0.070445649 0.10021498 0.39730394
0.070731148 0.10019009 0.39734906
0.071016639 0.1001652 0.39739421
0.071302146 0.1001403 0.39743933
0.071587637 0.1001154 0.39748445
0.071814626 0.099921606 0.39649311
0.07209941 0.099896774 0.39653814
0.072384194 0.099871941 0.39658317
0.072668977 0.099847108 0.39662817
0.072953761 0.099822275 0.3966732
0.073238544 0.099797443 0.39671823
0.073523328 0.09977261 0.39676324
0.073808104 0.099747777 0.39680827
0.074312761 0.099529758 0.39586082
0.07459683 0.099504985 0.3959057
0.074880905 0.099480212 0.39595062
0.075164974 0.099455446 0.39599553
0.075449042 0.099430673 0.39604044
0.07573311 0.0994059 0.39608535
0.076017186 0.099381134 0.39613026
0.076231368 0.099188454 0.39513689
0.076514721 0.099163741 0.39518169
0.076798081 0.099139035 0.39522648
0.077081442 0.099114329 0.39527127
0.077364802 0.099089615 0.39531606
0.077931516 0.099040203 0.39540565
0.078139998 0.098848008 0.39441139
0.078422643 0.098823361 0.39445606
0.078705296 0.098798715 0.39450076
0.078987941 0.098774068 0.39454544
0.079270586 0.098749422 0.39459011
0.079553239 0.098724775 0.39463481
0.079835884 0.098700128 0.39467949
0.080118529 0.098675482 0.39472416
0.080320604 0.09848386 0.39372888
0.080602542 0.098459274 0.39377347
0.080884472 0.098434687 0.39381802
0.081166409 0.098410107 0.39386261
0.081448346 0.09838552 0.39390716
0.081730284 0.098360933 0.39395174
0.082012214 0.098336354 0.3939963
0.082294151 0.098311767 0.39404088
0.082576081 0.09828718 0.39408544
0.082858026 0.098262593 0.39413002
0.083139956 0.098238014 0.39417461
0.083333485 0.098047115 0.39317796
0.083614707 0.098022595 0.39322242
0.083895937 0.097998075 0.39326686
0.084177151 0.097973548 0.39331132
0.084458381 0.097949028 0.39335579
0.084739603 0.097924508 0.39340025
0.085020833 0.097899981 0.39344469
0.085302047 0.097875461 0.39348915
0.08558327 0.097850941 0.39353362
0.085864499 0.097826414 0.39357808
0.086145721 0.097801894 0.39362255
0.086426944 0.097777367 0.39366701
0.086708166 0.097752847 0.39371145
0.086989388 0.097728327 0.39375591
0.087270617 0.0977038 0.39380038
0.087551832 0.09767928 0.39384484
0.088114284 0.097630233 0.39393374
0.088395514 0.097605713 0.39397821
0.088676728 0.097581185 0.39402267
0.08895795 0.097556666 0.39406714
0.08923918 0.097532146 0.39411157
0.089520402 0.097507618 0.39415604
0.089801624 0.097483099 0.3942005
0.090082847 0.097458579 0.39424497
0.090645298 0.097409531 0.39433387
0.090926513 0.097385012 0.39437833
0.091207743 0.097360484 0.3944228
0.091488965 0.097335964 0.39446726
0.092051409 0.097286917 0.39455616
0.092332631 0.097262397 0.39460063
0.092613861 0.097237878 0.39464509
0.093571559 0.09732838 0.39582372
0.093853496 0.097303793 0.3958683
0.094135433 0.097279213 0.39591286
0.094417371 0.097254626 0.39595744
0.094699301 0.09723004 0.39600202
0.094981238 0.09720546 0.39604658
0.095263176 0.097180873 0.39609116
0.095545113 0.097156286 0.39613572
0.095827051 0.097131699 0.3961803
0.09610898 0.09710712 0.39622486
0.096512072 0.097245976 0.39731583
0.096794724 0.097221322 0.3973605
0.097077362 0.097196676 0.39740521
0.097360015 0.097172029 0.39744988
0.097642668 0.097147383 0.39749455
0.097925305 0.097122736 0.39753926
0.098616749 0.097236454 0.3986758
0.098900102 0.097211748 0.39872059
0.099183463 0.097187042 0.39876539
0.099466823 0.097162329 0.39881018
0.099750176 0.097137623 0.39885497
0.10003354 0.097112916 0.39889976
0.1003169 0.097088203 0.39894459
0.10060026 0.097063497 0.39898938
0.10088361 0.097038783 0.39903417
0.060775705 0.1030964 0.40606764
0.061068319 0.10307089 0.40611389
0.061621331 0.10284793 0.40517399
0.061913237 0.10282247 0.40522015
0.062205143 0.10279702 0.40526628
0.06246268 0.10259984 0.40427974
0.062753879 0.10257445 0.40432575
0.063045062 0.10254905 0.4043718
0.064132586 0.10210475 0.40248916
0.064422354 0.10207948 0.40253496
0.064672068 0.10188298 0.40154713
0.06496112 0.10185777 0.40159282
0.065250181 0.10183257 0.40163851
0.06799496 0.10106902 0.39899057
0.068281874 0.101044 0.39903593
0.068568796 0.10101898 0.39908129
0.068855718 0.10099396 0.39912665
0.069091201 0.1007987 0.39813665
0.069377407 0.10077374 0.39818189
0.069663614 0.10074878 0.39822713
0.069949821 0.10072383 0.39827237
0.070236027 0.10069887 0.39831761
0.070467219 0.10050397 0.39732686
0.070752725 0.10047907 0.39737198
0.071038216 0.10045417 0.39741713
0.071323723 0.10042928 0.39746225
0.071609214 0.10040439 0.3975074
0.071836144 0.10020987 0.396516
0.072120927 0.10018504 0.396561
0.072405711 0.1001602 0.39660603
0.072690494 0.10013537 0.39665106
0.072975278 0.10011054 0.39669606
0.073260061 0.10008571 0.39674109
0.073544845 0.10006087 0.39678612
0.073829621 0.10003604 0.39683113
0.074050158 0.099842079 0.39583871
0.074618302 0.099792533 0.39592853
0.074902378 0.099767759 0.39597344
0.075186446 0.099742994 0.39601836
0.075470515 0.099718221 0.39606324
0.075754583 0.099693447 0.39610815
0.076038659 0.099668682 0.39615306
0.076252781 0.099475272 0.39515963
0.076536134 0.099450558 0.39520442
0.076819494 0.099425852 0.39524922
0.077102855 0.099401146 0.39529404
0.077386215 0.099376433 0.39533883
0.077669568 0.099351726 0.39538363
0.077952929 0.09932702 0.39542842
0.078236289 0.099302307 0.39547321
0.078726657 0.099084817 0.39452344
0.079009302 0.09906017 0.39456815
0.079291947 0.099035524 0.39461282
0.0795746 0.099010877 0.39465749
0.079857245 0.098986231 0.3947022
0.08013989 0.098961584 0.39474687
0.080422536 0.098936938 0.39479154
0.080705181 0.098912291 0.39483625
0.08090578 0.098720059 0.39384067
0.081187718 0.098695479 0.39388523
0.081469655 0.098670892 0.39392981
0.081751592 0.098646306 0.39397436
0.082033522 0.098621726 0.39401895
0.08231546 0.098597139 0.3940635
0.08259739 0.098572552 0.39410809
0.082879335 0.098547965 0.39415267
0.083161265 0.098523386 0.39419723
0.083443202 0.098498799 0.39424181
0.083725132 0.098474219 0.39428636
0.083917186 0.09828274 0.39328945
0.0841984 0.098258212 0.39333391
