# .PCD v0.7 - Point Cloud Data file format
VERSION 0.7
FIELDS x y z
SIZE 4 4 4
TYPE F F F
COUNT 1 1 1
WIDTH 1386
HEIGHT 1
VIEWPOINT 0 0 0 1 0 0 0
POINTS 1386
DATA ascii
0.083294526 0.087626427 0.39170542
0.08528541 0.087554179 0.39188629
0.091110215 0.087185226 0.39139968
0.091393918 0.08717493 0.39142546
0.091677606 0.08716464 0.39145124
0.092244998 0.087144047 0.3915028
0.092528686 0.08713375 0.39152858
0.092812374 0.087123461 0.39155436
0.1012125 0.086976215 0.39333346
0.10149691 0.086965896 0.3933593
0.066749454 0.090570696 0.40342602
0.067337006 0.090549372 0.4034794
0.072908506 0.089397378 0.39789039
0.073197953 0.08938688 0.39791667
0.073386349 0.089221746 0.39691791
0.073675081 0.089211263 0.39694414
0.073963813 0.089200787 0.39697036
0.074252546 0.089190312 0.39699659
0.074437335 0.089025304 0.39599752
0.074725345 0.089014858 0.39602369
0.078241467 0.088570647 0.39431143
0.078528032 0.088560253 0.39433745
0.078814611 0.088549852 0.39436349
0.079556704 0.088364609 0.39341503
0.079842553 0.088354237 0.39344102
0.080128409 0.088343866 0.39346698
0.083303228 0.087912053 0.39172372
0.087714612 0.087593667 0.39110863
0.090835214 0.087480426 0.39139217
0.091118902 0.087470129 0.39141795
0.091686293 0.087449543 0.39146951
0.092253685 0.08742895 0.39152107
0.09395583 0.087367184 0.39167571
0.1012212 0.087261841 0.39335176
0.066758439 0.090865731 0.40344492
0.067052215 0.090855069 0.40347162
0.071080394 0.090072781 0.39977393
0.072917357 0.08968807 0.39790902
0.073395185 0.089511707 0.39693648
0.07368391 0.089501224 0.3969627
0.074261375 0.089480273 0.39701518
0.074446142 0.089314535 0.39601603
0.074734166 0.08930409 0.39604223
0.077963665 0.088868834 0.3943038
0.078250229 0.088858433 0.39432985
0.078536808 0.08884804 0.39435589
0.079565451 0.088651687 0.39343342
0.0798513 0.088641316 0.39345941
0.080137156 0.088630944 0.39348537
0.080423005 0.088620566 0.39351135
0.082584262 0.088383108 0.39269182
0.083027519 0.088207997 0.39171615
0.084449582 0.088156395 0.39184538
0.087723285 0.087878577 0.39112687
0.091127589 0.087755039 0.39143619
0.091411293 0.087744743 0.39146197
0.091978669 0.087724157 0.39151353
0.093964517 0.087652095 0.39169395
0.094248205 0.087641798 0.39171973
0.094531894 0.087631501 0.39174551
0.072155364 0.090166472 0.39887354
0.072926216 0.089978755 0.39792761
0.073404014 0.089801669 0.39695504
0.073692746 0.089791179 0.39698127
0.074454963 0.089603782 0.39603457
0.074742973 0.089593336 0.39606073
0.075030982 0.089582883 0.3960869
0.075318992 0.08957243 0.39611307
0.077399284 0.08917743 0.39427018
0.077685863 0.089167029 0.3942962
0.077972427 0.089156628 0.39432225
0.078259006 0.089146227 0.39434829
0.07854557 0.089135833 0.39437431
0.07883215 0.089125432 0.39440036
0.079574198 0.088938765 0.39345181
0.080145903 0.088918023 0.39350376
0.082878113 0.088659115 0.39273605
0.083605051 0.088472992 0.39178613
0.083889455 0.088462666 0.391812
0.087448269 0.088173769 0.39111936
0.09397319 0.087936997 0.39171222
0.094256893 0.087926701 0.391738
0.094540581 0.087916404 0.39176378
0.10226711 0.08795552 0.39449775
0.10255224 0.087945178 0.39452368
0.10283738 0.087934829 0.39454958
0.070807308 0.090667605 0.39978492
0.071583904 0.090478949 0.39883947
0.071874075 0.090468422 0.39886585
0.072356164 0.090290457 0.39789364
0.07264562 0.090279952 0.39791995
0.072935075 0.090269446 0.39794624
0.073224522 0.090258949 0.39797255
0.07341285 0.090091631 0.39697361
0.073701583 0.090081155 0.39699987
0.073990315 0.09007068 0.39702609
0.07417576 0.089903474 0.39602694
0.07446377 0.089893013 0.39605311
0.074751779 0.089882568 0.39607927
0.077408046 0.089465231 0.3942886
0.077981204 0.089444429 0.39434069
0.078267768 0.089434028 0.39436671
0.078554347 0.089423634 0.39439276
0.078840911 0.089413233 0.39441881
0.079582945 0.089225836 0.3934702
0.083329342 0.088768929 0.39177859
0.087740645 0.088448383 0.39116338
0.091144949 0.088324845 0.3914727
0.093698174 0.088232189 0.39170468
0.093981877 0.0882219 0.39173046
0.094265565 0.088211603 0.39175624
0.094549254 0.088201307 0.39178202
0.094832942 0.088191018 0.39180779
0.095116645 0.088180721 0.39183357
0.10199071 0.088252217 0.39449018
0.10227583 0.088241868 0.39451611
0.10256096 0.088231526 0.39454201
0.10284609 0.088221177 0.39456791
0.070816211 0.090959743 0.39980364
0.071592778 0.090770364 0.39885816
0.071882948 0.090759836 0.39888451
0.072365023 0.090581141 0.39791226
0.072654478 0.090570636 0.39793858
0.072943933 0.090560131 0.39796486
0.073421687 0.090381607 0.39699221
0.073710419 0.090371117 0.39701843
0.073999152 0.090360641 0.39704466
0.074184582 0.09019272 0.39604545
0.074472576 0.09018226 0.39607164
0.074760601 0.090171814 0.39609781
0.077703401 0.089742623 0.39433306
0.078276545 0.089721821 0.39438516
0.078563109 0.089711428 0.39441121
0.079591691 0.089512907 0.39348859
0.07987754 0.089502536 0.39351457
0.083053634 0.089064874 0.39177105
0.083338045 0.089054555 0.39179689
0.086898252 0.088764168 0.39110428
0.087181941 0.088753872 0.39113006
0.091437325 0.088599451 0.39151672
0.091721013 0.088589162 0.39154249
0.093423173 0.088527389 0.39169717
0.093706861 0.088517092 0.39172292
0.093990549 0.088506803 0.3917487
0.094274253 0.088496506 0.39177448
0.095125318 0.088465624 0.39185181
0.10171429 0.088548914 0.39448264
0.10228456 0.088528216 0.39453444
0.10256969 0.088517874 0.39456037
0.10285483 0.088507526 0.39458627
0.071601659 0.091061778 0.39887682
0.071891829 0.091051251 0.39890319
0.072373874 0.090871833 0.39793089
0.07266333 0.090861328 0.39795718
0.072952785 0.090850823 0.39798349
0.073430523 0.090671569 0.39701077
0.073719256 0.090661079 0.397037
0.074007988 0.090650603 0.39706323
0.074193388 0.090481952 0.39606398
0.074481398 0.090471506 0.39609015
0.074769408 0.09046106 0.39611632
0.07713902 0.090051211 0.39429945
0.077425584 0.090040818 0.39432546
0.077712163 0.090030417 0.39435151
0.077998742 0.090020016 0.39437756
0.078285307 0.090009615 0.39440358
0.078571886 0.089999221 0.39442962
0.07885845 0.08998882 0.39445567
0.079886287 0.089789614 0.39353296
0.083062336 0.089350507 0.39178935
0.083346747 0.089340188 0.39181519
0.093431845 0.088812292 0.39171541
0.093715534 0.088801995 0.39174119
0.093999237 0.088791706 0.39176697
0.094566613 0.088771112 0.39181852
0.10143789 0.088845618 0.39447507
0.10172301 0.088835269 0.39450097
0.10200816 0.08882492 0.39452687
0.10257841 0.08880423 0.3945787
0.10286354 0.088793881 0.39460459
0.10389788 0.088918276 0.39571467
0.10418374 0.088907905 0.39574066
0.071320362 0.091363706 0.39886913
0.07161054 0.091353178 0.39889547
0.07190071 0.09134265 0.39892185
0.072382733 0.091162518 0.39794952
0.072672188 0.091152012 0.3979758
0.072961643 0.091141507 0.39800212
0.073439352 0.090961531 0.39702934
0.073728085 0.09095104 0.39705557
0.07420221 0.090771198 0.39608252
0.074490204 0.090760738 0.39610869
0.077147782 0.090339012 0.39431787
0.077434346 0.090328619 0.39434391
0.077720925 0.090318218 0.39436996
0.078007504 0.090307817 0.39439598
0.078294069 0.090297416 0.39442202
0.079895034 0.090076685 0.39355135
0.080180891 0.090066314 0.39357731
0.085915156 0.089532927 0.39206606
0.093156829 0.089107491 0.39170787
0.093440533 0.089097194 0.39173365
0.093724221 0.089086898 0.39175943
0.094291613 0.089066312 0.39181098
0.094858989 0.089045726 0.39186254
0.10116147 0.089142308 0.3944675
0.10144661 0.089131966 0.3944934
0.10173174 0.089121617 0.3945193
0.10201687 0.089111269 0.39454523
0.10230201 0.08910092 0.39457113
0.10258714 0.089090578 0.39459702
0.10390663 0.089205347 0.39573306
0.10419249 0.089194976 0.39575905
0.071329236 0.09165512 0.39888778
0.071619414 0.091644593 0.39891416
0.072391592 0.09145321 0.39796811
0.072681047 0.091442704 0.39799443
0.073448189 0.091251493 0.39704791
0.073736921 0.091241002 0.39707416
0.074211016 0.091060445 0.39610103
0.077156559 0.090626806 0.39433631
0.077729702 0.090606011 0.39438838
0.078016266 0.09059561 0.39441442
0.078302845 0.090585209 0.39444047
0.07858941 0.090574816 0.39446649
0.079162553 0.090554014 0.39451858
0.079332083 0.090384498 0.39351779
0.079903781 0.090363756 0.39356974
0.085355036 0.08983919 0.39203268
0.085639454 0.089828871 0.39205852
0.085923858 0.089818552 0.39208436
0.093449205 0.089382097 0.39175192
0.093732893 0.0893718 0.39177766
0.094016597 0.089361511 0.39180344
0.098437995 0.089364432 0.39322141
0.098722413 0.089354113 0.39324725
0.099006824 0.089343794 0.39327309
0.10088507 0.089439005 0.39445993
0.1011702 0.089428656 0.39448583
0.10145534 0.089418314 0.39451176
0.10174046 0.089407966 0.39453766
0.10202561 0.089397617 0.39456356
0.10231072 0.089387268 0.39458948
0.10305782 0.089523539 0.39567354
0.10334367 0.089513168 0.3956995
0.10362953 0.089502789 0.39572549
0.10391538 0.089492418 0.39575145
0.10420123 0.089482047 0.39577743
0.065940052 0.092962891 0.40349713
0.071338117 0.091946535 0.39890644
0.071628295 0.091936007 0.39893281
0.072110988 0.091754399 0.39796045
0.072400443 0.091743894 0.39798674
0.072689898 0.091733389 0.39801306
0.073457025 0.091541469 0.3970665
0.073745757 0.091530979 0.39709273
0.074219823 0.091349676 0.39611956
0.074795842 0.091328785 0.3961719
0.077738464 0.090893805 0.39440683
0.078025043 0.090883404 0.39443284
0.078598186 0.090862609 0.39448494
0.079912528 0.090650827 0.39358813
0.082075059 0.090408251 0.39276838
0.093741581 0.089656711 0.39179593
0.098162293 0.089660384 0.39321387
0.098446697 0.089650057 0.39323971
0.098731115 0.089639738 0.39326555
0.099015526 0.089629419 0.39329138
0.099299945 0.0896191 0.39331722
0.10060865 0.089735702 0.39445236
0.1008938 0.089725353 0.39447829
0.10117892 0.089715004 0.39450419
0.10146406 0.089704663 0.39453009
0.10174919 0.089694314 0.39455599
0.10203432 0.089683965 0.39458191
0.10231946 0.089673616 0.39460781
0.10306656 0.08981061 0.39569193
0.10335242 0.089800239 0.39571789
0.10363828 0.08978986 0.39574388
0.10392413 0.089779489 0.39576983
0.10420998 0.089769118 0.39579582
0.065949038 0.093257919 0.40351602
0.069205098 0.09264531 0.40076306
0.069697134 0.092462637 0.39979148
0.069988035 0.092452087 0.39981791
0.071346998 0.092237949 0.39892513
0.072119847 0.092045091 0.39797908
0.072409302 0.092034586 0.39800537
0.072698757 0.09202408 0.39803168
0.072888397 0.091852382 0.39703259
0.073177129 0.091841906 0.39705881
0.073465861 0.091831431 0.39708507
0.073754594 0.09182094 0.3971113
0.074228644 0.091638923 0.3961381
0.076887518 0.091212802 0.39434713
0.077747241 0.091181606 0.39442524
0.078320384 0.091160804 0.39447734
0.078606948 0.09115041 0.39450336
0.082083791 0.090694599 0.39278674
0.082368925 0.09068425 0.39281264
0.085372441 0.090410449 0.39206925
0.097886585 0.089956336 0.39320633
0.098170996 0.089946017 0.39323217
0.098455399 0.08993569 0.39325801
0.098739818 0.089925371 0.39328384
0.099024229 0.089915052 0.39330968
0.10061739 0.09002205 0.39447072
0.10090252 0.090011701 0.39449662
0.10118765 0.090001352 0.39452252
0.10147279 0.089991011 0.39454845
0.10175791 0.089980662 0.39457434
0.10204305 0.089970313 0.39460024
0.10307531 0.090097681 0.39571032
0.10336117 0.090087309 0.39573628
0.10364702 0.090076931 0.39576226
0.10393287 0.09006656 0.39578822
0.065958038 0.09355294 0.40353492
0.068630785 0.092959329 0.40072882
0.0689224 0.09294875 0.40075532
0.069415152 0.092765331 0.39978376
0.069706038 0.092754774 0.39981019
0.069996938 0.092744224 0.39983663
0.071355872 0.092529356 0.39894378
0.072128706 0.092335775 0.39799768
0.072418161 0.09232527 0.39802399
0.072707616 0.092314765 0.39805028
0.072897226 0.092142344 0.39705116
0.07347469 0.092121392 0.39710364
0.074237451 0.091928169 0.39615664
0.074525461 0.091917709 0.39618281
0.077182859 0.091490194 0.39439163
0.077469423 0.091479801 0.39441764
0.077756003 0.0914694 0.39444369
0.078042582 0.091458999 0.39446974
0.078329146 0.091448598 0.39449576
0.078615725 0.091438204 0.3945218
0.081522256 0.091001637 0.39275324
0.081807375 0.090991296 0.39277917
0.082092509 0.090980947 0.39280507
0.085381143 0.090696067 0.39208755
0.097610869 0.090252273 0.39319876
0.097895287 0.090241954 0.3932246
0.098179698 0.090231635 0.39325044
0.098464102 0.090221308 0.3932763
0.09874852 0.090210989 0.39330214
0.10034098 0.090318739 0.39446315
0.1014815 0.090277359 0.39456677
0.10176664 0.09026701 0.39459267
0.068348102 0.093262777 0.40072107
0.068639711 0.093252197 0.40074757
0.068931326 0.093241617 0.40077406
0.069424048 0.093057461 0.39980248
0.069714934 0.093046904 0.39982891
0.070005834 0.093036354 0.39985535
0.070784412 0.092841834 0.39890972
0.071074583 0.092831306 0.39893609
0.071364753 0.092820771 0.39896244
0.071558662 0.092647471 0.3979637
0.071848117 0.092636965 0.39799002
0.072137564 0.092626467 0.3980163
0.072427019 0.092615962 0.39804262
0.072716475 0.092605457 0.3980689
0.072906062 0.092432305 0.39706975
0.073483527 0.092411354 0.3971222
0.076618478 0.09179879 0.39435798
0.076905057 0.091788389 0.394384
0.0774782 0.091767594 0.39443609
0.077764779 0.091757193 0.39446211
0.078051344 0.091746792 0.39448816
0.078337923 0.091736391 0.3945142
0.078624487 0.091725998 0.39454025
0.079938769 0.091512047 0.39364329
0.080224626 0.091501676 0.39366928
0.082101241 0.091267295 0.39282343
0.085674264 0.09097138 0.39213169
0.086527497 0.090940416 0.39220923
0.086811908 0.090930097 0.39223507
0.087665148 0.090899132 0.39231259
0.088802792 0.090857849 0.39241597
0.097050749 0.090558551 0.39316538
0.09733516 0.090548225 0.39319122
0.097619571 0.090537906 0.39321706
0.097903989 0.090527587 0.3932429
0.0981884 0.090517268 0.39326873
0.1003497 0.090605095 0.39448148
0.10063484 0.090594746 0.39450741
0.10091997 0.090584397 0.39453331
0.1012051 0.090574048 0.3945592
0.10149024 0.090563707 0.3945851
0.065976009 0.094142996 0.40357271
0.068357021 0.093555629 0.40073985
0.068648629 0.093545049 0.40076634
0.069432952 0.093349598 0.39982119
0.069723837 0.093339041 0.39984763
0.070014738 0.093328491 0.39987406
0.070503123 0.093143769 0.39890203
0.070793293 0.093133241 0.39892837
0.071083464 0.093122713 0.39895475
0.071373634 0.093112178 0.39898112
0.071567513 0.092938155 0.39798233
0.071856968 0.092927657 0.39800861
0.072146416 0.092917152 0.39803493
0.072435871 0.092906646 0.39806122
0.072725326 0.092896141 0.39808753
0.072914898 0.092722267 0.39708832
0.073203631 0.092711791 0.39711455
0.073492363 0.092701316 0.39714077
0.074255079 0.092506647 0.39619368
0.074831098 0.092485756 0.39624602
0.076627254 0.092086591 0.3943764
0.076913819 0.09207619 0.39440244
0.077200398 0.092065789 0.39442849
0.077486962 0.092055395 0.39445451
0.077773541 0.092044994 0.39448056
0.07806012 0.092034593 0.3945066
0.078346685 0.092024192 0.39453262
0.078633264 0.092013799 0.39455867
0.080519222 0.091778368 0.39371362
0.082395092 0.091543302 0.39286765
0.085682966 0.091257006 0.39214998
0.085967369 0.091246687 0.39217582
0.086536199 0.091226041 0.39222753
0.087105021 0.091205403 0.39227921
0.087389432 0.091195084 0.39230505
0.088242672 0.09116412 0.39238256
0.088527083 0.0911538 0.3924084
0.088811494 0.091143474 0.39243427
0.089095913 0.091133155 0.39246011
0.09677504 0.090854496 0.39315784
0.097059451 0.090844177 0.39318368
0.097343862 0.09083385 0.39320952
0.097628273 0.090823531 0.39323536
0.097912692 0.090813212 0.39326119
0.10064355 0.090881102 0.39452574
0.1009287 0.090870753 0.39455163
0.10121382 0.090860404 0.39457756
0.068365946 0.093848489 0.40075859
0.068657555 0.093837909 0.40078509
0.06894917 0.09382733 0.40081158
0.069441855 0.093641728 0.39983991
0.069732741 0.093631171 0.39986634
0.070511997 0.093435176 0.39892069
0.070802167 0.093424648 0.39894706
0.071092337 0.09341412 0.39897341
0.071382508 0.093403585 0.39899978
0.071576372 0.093228847 0.39800096
0.071865827 0.093218349 0.39802724
0.072155274 0.093207844 0.39805356
0.07244473 0.093197338 0.39807984
0.072734185 0.093186833 0.39810616
0.072923735 0.093012244 0.39710689
0.073212467 0.093001768 0.39713311
0.074551895 0.092785433 0.39623839
0.077209175 0.092353582 0.39444691
0.077495739 0.092343189 0.39447296
0.077782318 0.092332788 0.394499
0.078355461 0.092311986 0.39455107
0.078642026 0.092301592 0.39457712
0.080242112 0.092075817 0.39370605
0.080527961 0.092065439 0.39373201
0.085976072 0.091532305 0.39219412
0.08626049 0.091521978 0.39221999
0.086544901 0.091511659 0.39224583
0.088535786 0.091439418 0.3924267
0.088820197 0.091429092 0.39245257
0.093086384 0.091274284 0.39284018
0.096783742 0.091140114 0.39317614
0.097068153 0.091129795 0.39320198
0.097352564 0.091119468 0.39322782
0.097636975 0.091109149 0.39325365
0.10008202 0.09118814 0.39449227
0.10036715 0.091177791 0.39451817
0.10065228 0.09116745 0.39454409
0.10093742 0.091157101 0.39456999
0.068374872 0.094141349 0.40077737
0.06866648 0.094130769 0.40080386
0.069159858 0.093944423 0.39983219
0.069450751 0.093933865 0.39985862
0.069741637 0.093923308 0.39988506
0.070520878 0.09372659 0.39893934
0.070811048 0.093716063 0.39896572
0.071101218 0.093705535 0.39899209
0.071295783 0.093530037 0.39799327
0.071585231 0.093519531 0.39801958
0.071874686 0.093509026 0.39804587
0.072164133 0.093498528 0.39807215
0.072453588 0.093488023 0.39809847
0.072643839 0.093312681 0.39709923
0.072932564 0.093302205 0.39712545
0.073221304 0.09329173 0.39715171
0.074272707 0.093085125 0.39623073
0.074560702 0.093074679 0.39625689
0.074848726 0.093064234 0.39628306
0.077504501 0.092630982 0.39449137
0.078077659 0.09261018 0.39454347
0.078364223 0.092599779 0.39456952
0.079107448 0.09240438 0.39362055
0.080250859 0.092362888 0.39372444
0.081557155 0.092147037 0.39282662
0.085131541 0.091848895 0.3921349
0.086269192 0.091807611 0.39223826
0.086838014 0.091786973 0.39228997
0.087975666 0.09174569 0.39239332
0.092810668 0.091570236 0.39283264
0.093095087 0.091559917 0.39285848
0.093379498 0.091549598 0.39288431
0.093663909 0.091539271 0.39291015
0.09394832 0.091528952 0.39293599
0.094517149 0.091508314 0.3929877
0.096223615 0.091446385 0.39314273
0.096508034 0.091436066 0.39316857
0.096792445 0.091425747 0.39319444
0.097076856 0.091415428 0.39322028
0.097361267 0.091405101 0.39324611
0.098950215 0.091515876 0.39440697
0.099235348 0.091505527 0.39443287
0.099520482 0.091495186 0.3944588
0.10009075 0.091474488 0.3945106
0.10037588 0.091464147 0.39453653
0.069168761 0.09423656 0.3998509
0.069459654 0.094226003 0.39987734
0.06975054 0.094215445 0.39990377
0.069949403 0.094039068 0.39890528
0.070239574 0.09402854 0.39893165
0.070529759 0.094018005 0.39895803
0.070819929 0.094007477 0.39898437
0.0711101 0.093996949 0.39901075
0.071594089 0.093810223 0.39803818
0.071883544 0.093799718 0.39806449
0.072172992 0.09378922 0.39809078
0.073230132 0.093581691 0.39717028
0.073705494 0.093395278 0.39619693
0.074281514 0.093374372 0.39624926
0.074569523 0.093363926 0.39627543
0.074857533 0.09335348 0.3963016
0.077799857 0.092908382 0.39453587
0.078086421 0.092897981 0.39456189
0.078373 0.09288758 0.39458793
0.078659564 0.092877187 0.39461398
0.079402052 0.09268108 0.3936649
0.080545455 0.092639588 0.39376879
0.085140243 0.09213452 0.3921532
0.085993476 0.092103563 0.39223072
0.086277895 0.092093237 0.39225656
0.086562306 0.092082918 0.3922824
0.087131128 0.09206228 0.3923341
0.092534967 0.09186618 0.3928251
0.09281937 0.091855861 0.39285094
0.093103789 0.091845542 0.39287677
0.096232317 0.09173201 0.39316103
0.096516736 0.091721691 0.39318687
0.096801147 0.091711372 0.39321271
0.097085558 0.091701053 0.39323857
0.097369969 0.091690727 0.39326441
0.098388679 0.091822922 0.39437351
0.098673813 0.091812573 0.3943994
0.098958947 0.091802225 0.39442533
0.09924408 0.091791876 0.39445123
0.099529199 0.091781534 0.39447713
0.099814333 0.091771185 0.39450303
0.10009947 0.091760837 0.39452896
0.068392716 0.094727062 0.40081486
0.069177665 0.094528697 0.39986962
0.069468558 0.09451814 0.39989606
0.069759443 0.094507582 0.39992246
0.069958277 0.094330482 0.39892396
0.070248447 0.094319947 0.39895031
0.070538633 0.094309419 0.39897668
0.070828803 0.094298892 0.39900306
0.071118973 0.094288364 0.3990294
0.071602941 0.094100907 0.39805681
0.071892396 0.09409041 0.39808312
0.072181843 0.094079904 0.39810941
0.072471298 0.094069399 0.39813572
0.072950236 0.093882129 0.39716262
0.074290335 0.093663618 0.3962678
0.07457833 0.093653157 0.39629397
0.077522039 0.093206577 0.39452827
0.078095183 0.093185775 0.39458033
0.078381762 0.093175374 0.39460638
0.078668326 0.09316498 0.3946324
0.079124942 0.09297853 0.39365733
0.081574604 0.092719741 0.3928633
0.085433356 0.092409827 0.39219734
0.086002178 0.092389189 0.39224902
0.086571008 0.092368543 0.3923007
0.08713983 0.092347905 0.3923524
0.092543669 0.092151806 0.3928434
0.092828073 0.092141487 0.39286923
0.093396902 0.092120849 0.39292091
0.09624102 0.092017636 0.39317933
0.096525438 0.092007317 0.39320517
0.096809849 0.091996998 0.393231
0.09709426 0.091986679 0.39325687
0.098397397 0.092109278 0.39439183
0.09868253 0.092098929 0.39441776
0.098967664 0.09208858 0.39444366
0.099252798 0.092078231 0.39446956
0.099537931 0.09206789 0.39449549
0.099823065 0.092057541 0.39452139
0.06889566 0.094831385 0.3998619
0.069186561 0.094820827 0.39988834
0.069386818 0.094642937 0.3988899
0.069676988 0.09463241 0.39891624
0.069967158 0.094621882 0.39894262
0.070257328 0.094611354 0.39896899
0.070547514 0.094600819 0.39899534
0.072190702 0.094370596 0.39812803
0.072480157 0.094360091 0.39815432
0.074299142 0.093952864 0.39628631
0.074587151 0.093942404 0.39631248
0.077530801 0.093494371 0.39454669
0.07781738 0.09348397 0.39457273
0.07810396 0.093473569 0.39459878
0.078390524 0.093463168 0.3946248
0.079133689 0.093265601 0.39367571
0.085157648 0.092705771 0.3921898
0.08657971 0.092654169 0.39231899
0.093405604 0.092406474 0.39293921
0.095965318 0.09231358 0.39317179
0.096249722 0.092303261 0.39319763
0.096818551 0.092282623 0.3932493
0.097835861 0.092416316 0.39435837
0.098120995 0.092405967 0.39438429
0.098406129 0.092395626 0.39441019
0.098691262 0.092385277 0.39443609
0.098976396 0.092374928 0.39446199
0.09926153 0.092364579 0.39448792
0.099546649 0.092354238 0.39451382
0.10028676 0.09249799 0.3955977
0.10057262 0.092487618 0.39562365
0.068613678 0.095134072 0.39985418
0.068904564 0.095123522 0.39988062
0.069195464 0.095112965 0.39990702
0.069395699 0.094934352 0.39890856
0.069685869 0.094923824 0.39893493
0.069976039 0.094913296 0.39896128
0.07026621 0.094902761 0.39898765
0.070556395 0.094892234 0.39901403
0.071620658 0.094682284 0.39809406
0.071910113 0.094671778 0.39812034
0.072679177 0.094472542 0.39717352
0.074307948 0.094242096 0.39630485
0.074595958 0.09423165 0.39633101
0.075640783 0.094022401 0.39540929
0.075928077 0.094011977 0.39543536
0.077539578 0.093782172 0.39456514
0.077826157 0.093771771 0.39459115
0.078112721 0.09376137 0.3946172
0.078399301 0.093750969 0.39464325
0.078570731 0.093573414 0.39364216
0.078856587 0.093563043 0.39366812
0.085450761 0.092981085 0.39223394
0.086588413 0.092939802 0.39233729
0.087157235 0.092919163 0.39238897
0.092845477 0.092712745 0.39290583
0.096258424 0.092588894 0.39321592
0.096542843 0.092578575 0.39324176
0.09755946 0.092713006 0.3943508
0.097844578 0.092702657 0.39437672
0.098129727 0.092692308 0.39440262
0.098414846 0.092681967 0.39442852
0.098699979 0.092671618 0.39445445
0.098985113 0.092661269 0.39448035
0.099270247 0.09265092 0.39450625
0.10000966 0.092795432 0.3955901
0.10029551 0.09278506 0.39561608
0.10058136 0.092774689 0.39564204
0.068622582 0.095426209 0.3998729
0.068913467 0.095415652 0.39989933
0.069204368 0.095405094 0.39992574
0.069404572 0.095225766 0.39892721
0.069694743 0.095215239 0.39895359
0.069984913 0.095204711 0.39897996
0.070275083 0.095194183 0.39900631
0.070565268 0.095183648 0.39903268
0.071629509 0.094972968 0.39811265
0.071918964 0.09496247 0.39813897
0.07431677 0.094531342 0.39632338
0.074604765 0.094520897 0.39634955
0.075936869 0.094300494 0.39545387
0.076798752 0.094269216 0.39553216
0.078121498 0.094049163 0.39463565
0.078408062 0.094038762 0.39466166
0.079151183 0.093839742 0.39371249
0.07943704 0.093829364 0.39373845
0.079722889 0.093818992 0.39376444
0.081885904 0.093568444 0.39294425
0.085175052 0.09327703 0.39222637
0.086597115 0.093225427 0.39235559
0.097568177 0.092999361 0.39436916
0.09785331 0.092989013 0.39439505
0.098138444 0.092978664 0.39442095
0.098423578 0.092968322 0.39444688
0.098708712 0.092957973 0.39447278
0.098993845 0.092947625 0.39449868
0.1000184 0.093082502 0.39560848
0.10030425 0.093072131 0.39563447
0.10059011 0.09306176 0.39566043
0.068631478 0.095718347 0.39989161
0.068922363 0.095707789 0.39991802
0.069123276 0.095527716 0.39891952
0.069413453 0.095517181 0.3989459
0.069703624 0.095506653 0.39897224
0.069993794 0.095496126 0.39899862
0.070283964 0.09548559 0.39902499
0.071638368 0.09526366 0.39813128
0.071927823 0.095253162 0.3981576
0.074325576 0.094820589 0.39634189
0.07594566 0.094589017 0.39547235
0.076807544 0.09455774 0.39555064
0.078416839 0.094326556 0.39468011
0.081039235 0.093885832 0.39288485
0.081324369 0.093875483 0.39291078
0.097862028 0.093275361 0.39441341
0.098147176 0.093265012 0.39443931
0.098432295 0.093254671 0.39446521
0.099741302 0.093379959 0.39560091
0.10002715 0.093369588 0.39562687
0.100313 0.09335921 0.39565286
0.067562498 0.096223094 0.40082917
0.068349488 0.096021026 0.3998839
0.068640381 0.096010469 0.3999103
0.068931267 0.095999919 0.39993674
0.069132157 0.095819123 0.39893818
0.069422334 0.095808588 0.39896455
0.069712505 0.09579806 0.39899093
0.070002675 0.095787533 0.39901727
0.070292845 0.095776998 0.39904365
0.071357779 0.09556485 0.39812362
0.071647227 0.095554344 0.39814991
0.071936682 0.095543839 0.39817622
0.075667158 0.094887957 0.39546472
0.075954452 0.094877534 0.39549083
0.076241747 0.09486711 0.39551693
0.076529041 0.094856679 0.39554304
0.076816335 0.094846256 0.39556915
0.077852458 0.094635159 0.39464647
0.078139037 0.094624758 0.39467251
0.079454534 0.094403513 0.39377522
0.081333086 0.094161831 0.39292911
0.084908046 0.093858607 0.39223713
0.085761286 0.093827643 0.39231464
0.099464193 0.093677402 0.39559332
0.099750049 0.09366703 0.3956193
0.1000359 0.093656659 0.39564529
0.10077824 0.093803227 0.39672953
0.068358384 0.096313164 0.39990258
0.068649285 0.096302606 0.39992902
0.06894017 0.096292056 0.39995545
0.069141038 0.09611053 0.39895687
0.069431216 0.096099995 0.39898321
0.069721386 0.096089467 0.39900959
0.071077183 0.095866047 0.39811593
0.071366638 0.095855542 0.39814222
0.071656086 0.095845036 0.39816853
0.071945541 0.095834531 0.39819482
0.075675949 0.095176473 0.3954832
0.076250538 0.095155627 0.39553541
0.076537833 0.095145196 0.39556152
0.078434378 0.09490215 0.39471698
0.086054392 0.094102949 0.39235881
0.099187091 0.093974844 0.39558575
0.09947294 0.093964472 0.39561173
0.099758796 0.093954101 0.39563769
0.10050044 0.094101414 0.39672193
0.10078702 0.094091021 0.39674798
0.066997118 0.096829981 0.4008137
0.067785501 0.096626408 0.39986846
0.068076394 0.096615851 0.39989486
0.068367288 0.096605293 0.3999213
0.068859741 0.096412472 0.39894915
0.069149911 0.096401945 0.39897552
0.069440089 0.09639141 0.3990019
0.069730259 0.096380882 0.39902824
0.070507124 0.096177734 0.39808196
0.070796587 0.096167237 0.39810824
0.071086034 0.096156731 0.39813456
0.071375489 0.096146226 0.39816085
0.075684741 0.095464997 0.39550167
0.075972036 0.095454574 0.39552778
0.076546624 0.095433719 0.39557999
0.07672371 0.095252343 0.39457917
0.077583417 0.095221147 0.39465731
0.07844314 0.095189944 0.39473543
0.081350535 0.094734535 0.39296579
0.085778691 0.094398893 0.39235124
0.098338276 0.094293036 0.3955262
0.098624125 0.094282664 0.39555219
0.098909982 0.094272286 0.39557818
0.099195838 0.094261914 0.39560413
0.099481687 0.094251543 0.39563009
0.10022264 0.094399609 0.39671433
0.10050922 0.094389208 0.39674035
0.10079578 0.094378814 0.39676639
0.067006044 0.097122833 0.40083247
0.067297652 0.097112246 0.40085897
0.067794405 0.096918553 0.39988717
0.068085298 0.096907996 0.39991358
0.068376191 0.096897438 0.39994001
0.068868622 0.096703887 0.39896783
0.06944897 0.096682824 0.39902055
0.069739141 0.096672297 0.39904693
0.070805445 0.096457928 0.39812687
0.071094893 0.096447423 0.39815316
0.071384348 0.096436918 0.39817947
0.07598082 0.09574309 0.39554626
0.076555409 0.095722236 0.39559847
0.076732472 0.095540144 0.39459762
0.077878773 0.095498547 0.39470178
0.078909069 0.095285475 0.39377844
0.079194918 0.095275104 0.39380443
0.079766624 0.095254354 0.39385638
0.085351124 0.094876029 0.39334685
0.097775325 0.094600849 0.39549264
0.098061174 0.094590478 0.39551863
0.098347023 0.094580106 0.39554462
0.098632872 0.094569735 0.39557058
0.098918729 0.094559357 0.39559653
0.099204585 0.094548985 0.39562252
0.099658273 0.094708212 0.39668068
0.099944837 0.094697811 0.39670673
0.1002314 0.09468741 0.39673275
0.10051798 0.094677009 0.39675879
0.10080456 0.094666615 0.39678484
0.062194157 0.098649025 0.40651512
0.067014962 0.097415686 0.40085122
0.067306571 0.097405098 0.40087771
0.067803301 0.097210683 0.39990586
0.068094194 0.097200125 0.3999323
0.068385087 0.097189568 0.39995873
0.068877503 0.096995294 0.39898649
0.069167674 0.096984766 0.39901286
0.069457851 0.096974231 0.39903921
0.070814304 0.096748613 0.3981455
0.071103752 0.096738108 0.39817178
0.071393207 0.096727602 0.3981981
0.075702317 0.096042037 0.39553863
0.075989611 0.096031614 0.39556473
0.076276906 0.09602119 0.39559084
0.0765642 0.096010759 0.39561695
0.077600956 0.095796742 0.39469418
0.077887535 0.095786341 0.3947202
0.084789574 0.095183067 0.39331338
0.095624603 0.094789885 0.39429784
0.097784072 0.094887927 0.39551106
0.098069921 0.094877556 0.39553702
0.09835577 0.094867185 0.39556301
0.098641619 0.094856814 0.39558896
0.098927476 0.094846442 0.39561495
0.099213332 0.094836064 0.39564091
0.099667035 0.094996005 0.39669913
0.10024018 0.094975203 0.3967512
0.10052676 0.094964802 0.39677724
0.067023888 0.097708553 0.40087
0.067315497 0.097697966 0.40089649
0.067521311 0.097513378 0.39989814
0.067812204 0.09750282 0.39992458
0.068103097 0.097492263 0.39995101
0.06839399 0.097481705 0.39997745
0.069176547 0.097276181 0.39903152
0.069466725 0.097265646 0.39905789
0.0705337 0.097049803 0.39813781
0.070823163 0.097039305 0.39816412
0.07111261 0.097028799 0.39819041
0.075423822 0.096340969 0.39553103
0.075711109 0.096330546 0.39555714
0.076285698 0.096309699 0.39560932
0.076572992 0.096299268 0.39563543
0.077323154 0.096094929 0.39468658
0.094492793 0.095117621 0.39421257
0.094777927 0.095107272 0.39423847
0.095063061 0.095096931 0.39426437
0.095348194 0.095086582 0.3942903
0.095633321 0.095076233 0.3943162
0.097506963 0.095185377 0.39550346
0.097792819 0.095174998 0.39552945
0.098078668 0.095164627 0.39555541
0.098364517 0.095154256 0.39558139
0.098650366 0.095143884 0.39560735
0.098936222 0.095133513 0.39563334
0.099389218 0.095294192 0.3966915
0.099962376 0.095273398 0.3967436
0.10024894 0.095262997 0.39676961
0.066741183 0.098011985 0.40086225
0.067032807 0.098001406 0.40088874
0.067324415 0.097990818 0.40091524
0.067530215 0.097805507 0.39991686
0.067821108 0.09779495 0.39994329
0.068112001 0.097784393 0.39996973
0.068402894 0.097773835 0.39999616
0.068605088 0.097588643 0.39899746
0.068895258 0.097578116 0.39902383
0.069185428 0.097567588 0.39905018
0.069475606 0.097557053 0.39907655
0.070542552 0.097340487 0.39815643
0.070832014 0.097329989 0.39818272
0.071121462 0.097319484 0.39820904
0.075145319 0.096639924 0.3955234
0.075432613 0.096629493 0.39554951
0.0757199 0.09661907 0.39557561
0.076294489 0.096598223 0.39562783
0.076581784 0.096587792 0.3956539
0.07733193 0.096382722 0.394705
0.077618495 0.096372329 0.39473104
0.077905074 0.096361928 0.39475709
0.094501525 0.095403977 0.3942309
0.094786659 0.095393628 0.3942568
0.095071778 0.095383286 0.39428273
0.095356926 0.095372938 0.39430863
0.095642053 0.095362589 0.39433452
0.097229853 0.095482819 0.39549589
0.09751571 0.095472448 0.39552185
0.097801566 0.095462069 0.39554784
0.098087415 0.095451698 0.39557379
0.098373264 0.095441326 0.39559978
0.099111415 0.095592387 0.3966839
0.099397995 0.095581986 0.39670995
0.099684574 0.095571592 0.396736
0.099971138 0.095561191 0.39676201
0.1002577 0.09555079 0.39678806
0.066750109 0.098304845 0.40088099
0.067041732 0.098294266 0.40090752
0.067539111 0.098097645 0.39993557
0.067830004 0.098087087 0.39996201
0.068120897 0.09807653 0.39998844
0.06841179 0.098065972 0.40001488
0.068613969 0.097880058 0.39901611
0.068904139 0.09786953 0.39904249
0.069194309 0.097859003 0.39906886
0.069484487 0.097848468 0.39909521
0.070261963 0.097641684 0.39814875
0.07055141 0.097631179 0.39817506
0.070840873 0.097620681 0.39820135
0.07113032 0.097610176 0.39822766
0.075154111 0.096928447 0.39554188
0.075728692 0.096907593 0.39559409
0.080253631 0.096207671 0.39295387
0.080538765 0.096197322 0.39297977
0.084530622 0.096052468 0.39334249
0.091794848 0.095610291 0.3929854
0.093369722 0.095731713 0.39414561
0.094225109 0.095700674 0.39422333
0.094510242 0.095690325 0.39424926
0.094795376 0.095679976 0.39427516
0.095365651 0.095659286 0.39432698
0.096952751 0.095780261 0.39548829
0.0972386 0.09576989 0.39551428
0.097524457 0.095759518 0.39554024
0.097810313 0.09574914 0.39556623
0.098096162 0.095738769 0.39559218
0.099120192 0.095880181 0.39670235
0.099406756 0.09586978 0.3967284
0.099693336 0.095859386 0.39675441
0.099979915 0.095848985 0.39678046
0.10026648 0.095838584 0.39680651
0.066759035 0.098597698 0.40089977
0.067050658 0.098587118 0.40092626
0.067548014 0.098389775 0.39995429
0.067838907 0.098379217 0.39998072
0.0681298 0.09836866 0.40000716
0.068420693 0.098358102 0.40003359
0.068622842 0.098171465 0.3990348
0.068913013 0.098160937 0.39906114
0.069203183 0.09815041 0.39908752
0.069493361 0.098139875 0.39911389
0.070270821 0.097932369 0.39816737
0.070560269 0.097921863 0.39819366
0.070849732 0.097911365 0.39821997
0.071139179 0.09790086 0.39824626
0.073828861 0.097444668 0.3964563
0.075450197 0.097206526 0.39558646
0.076312073 0.097175255 0.39566478
0.077349469 0.096958309 0.39474186
0.080262348 0.096494012 0.39297223
0.080832615 0.096473321 0.39302403
0.084254205 0.096349157 0.39333493
0.091803551 0.095895909 0.3930037
0.094233841 0.095987014 0.39424169
0.094518974 0.095976666 0.39426759
0.094804108 0.095966317 0.39429349
0.095089227 0.095955975 0.39431942
0.096675642 0.09607771 0.39548072
0.096961491 0.096067332 0.39550668
0.09724734 0.096056961 0.39553267
0.097533204 0.096046589 0.39555863
0.099128954 0.096167974 0.39672077
0.099415533 0.096157573 0.39674681
0.099702112 0.09614718 0.39677286
0.099988677 0.096136779 0.39679891
0.067266025 0.098692469 0.39994657
0.067556918 0.098681912 0.39997301
0.067847811 0.098671354 0.39999944
0.068138704 0.098660797 0.40002587
0.068341553 0.098473407 0.39902708
0.068921894 0.098452352 0.39907983
0.069212064 0.098441824 0.39910617
0.069502242 0.098431289 0.39913255
0.069990218 0.098233566 0.39815968
0.070279673 0.09822306 0.398186
0.07056912 0.098212555 0.39821228
0.070858583 0.098202057 0.3982386
0.071630262 0.09799403 0.39729148
0.073549658 0.097744361 0.39644867
0.074125692 0.097723454 0.396501
0.07603357 0.097474203 0.39565715
0.080841348 0.096759677 0.39304239
0.081126481 0.096749328 0.39306828
0.081411615 0.096738979 0.39309418
0.084548071 0.096625164 0.39337918
0.09253177 0.096335448 0.39410457
0.094242558 0.09627337 0.39426002
0.094527692 0.096263021 0.39428595
0.094812825 0.096252672 0.39431185
0.095097959 0.096242331 0.39433774
0.096684381 0.096364781 0.39549911
0.096970238 0.09635441 0.39552507
0.097256087 0.096344039 0.39555106
0.097541943 0.096333668 0.39557701
0.0978278 0.096323289 0.395603
0.098564588 0.096476577 0.39668715
0.098851152 0.096466176 0.39671317
0.099137731 0.096455775 0.39673921
0.099424295 0.096445374 0.39676526
0.099710874 0.096434981 0.39679128
0.099997453 0.09642458 0.39681733
0.066984028 0.098995149 0.39993885
0.067274921 0.098984592 0.39996529
0.067565814 0.098974042 0.39999172
0.068350434 0.098764829 0.39904577
0.068930775 0.098743767 0.39909849
0.069220945 0.098733239 0.39912486
0.069511123 0.098722704 0.39915124
0.069709629 0.098534755 0.39815202
0.069999076 0.09852425 0.39817831
0.070288531 0.098513745 0.39820459
0.070577979 0.098503239 0.39823091
0.070867442 0.098492742 0.3982572
0.071639098 0.098284006 0.39731005
0.071927831 0.098273516 0.39733627
0.072216563 0.09826304 0.3973625
0.07355848 0.098033592 0.39646718
0.074134499 0.098012701 0.39651954
0.075467773 0.097783566 0.39562342
0.07575506 0.097773142 0.39564952
0.075934142 0.097585902 0.39464855
0.076793849 0.097554706 0.39472666
0.077653572 0.09752351 0.39480478
0.080279797 0.097066715 0.39300892
0.080564946 0.097056367 0.39303482
0.080850065 0.097046025 0.39306071
0.093395889 0.096590757 0.39420065
0.093681023 0.096580409 0.39422655
0.094536424 0.096549369 0.39430428
0.095835574 0.096682973 0.39543957
0.09612143 0.096672602 0.39546555
0.096407279 0.096662231 0.39549151
0.096693128 0.096651852 0.3955175
0.096978985 0.096641481 0.39554346
0.097264834 0.09663111 0.39556944
0.098573349 0.096764371 0.39670557
0.098859929 0.09675397 0.39673162
0.099146493 0.096743569 0.39675766
0.099433072 0.096733168 0.39678368
0.066992931 0.099287286 0.39995757
0.067283824 0.099276729 0.399984
0.067574717 0.099266179 0.40001044
0.068359308 0.099056236 0.39906442
0.068649478 0.099045709 0.3990908
0.068939649 0.099035181 0.39911714
0.069229819 0.099024653 0.39914352
0.069519997 0.099014118 0.39916989
0.069718488 0.098825447 0.39817062
0.070007935 0.098814942 0.39819694
0.07029739 0.098804437 0.39822322
0.070586838 0.098793931 0.39824954
0.0708763 0.098783433 0.39827582
0.071647927 0.098573968 0.39732862
0.07193666 0.098563477 0.39735484
0.073855311 0.098312393 0.39651188
0.075476564 0.098072089 0.39564189
0.077662334 0.097811304 0.39482322
0.080288529 0.097353064 0.39302725
0.080573663 0.097342715 0.39305314
0.081143931 0.097322024 0.39310497
0.081429064 0.097311676 0.39313087
0.084280372 0.097208209 0.39338994
0.091978952 0.096928842 0.39408946
0.094700918 0.097011536 0.39535406
0.095272616 0.096990794 0.39540601
0.095844321 0.096970044 0.39545795
0.096130177 0.096959673 0.39548394
0.096416026 0.096949302 0.3955099
0.096701875 0.096938923 0.39553589
0.096987732 0.096928552 0.39556184
0.098008968 0.097072959 0.39667192
0.098295547 0.097062558 0.39669797
0.098582126 0.097052164 0.39672402
0.09886869 0.097041763 0.39675003
0.09915527 0.097031362 0.39677608
0.067001835 0.099579424 0.39997628
0.067292728 0.099568866 0.40000272
0.067583621 0.099558316 0.40002915
0.068078019 0.099358171 0.39905673
0.068368189 0.099347644 0.39908311
0.068658359 0.099337108 0.39910945
0.06894853 0.099326581 0.39913583
0.069727346 0.099116132 0.39818925
0.070016794 0.099105626 0.39821556
0.070306249 0.099095121 0.39824185
0.070595697 0.099084616 0.39826813
0.070885159 0.099074118 0.39829445
0.071945496 0.098853439 0.39737344
0.072234228 0.098842964 0.39739966
0.074910775 0.09838146 0.39560819
0.075485356 0.098360606 0.3956604
0.076811388 0.098130301 0.39476353
0.080582395 0.097629063 0.3930715
0.081152648 0.097608373 0.3931233
0.091702551 0.097225532 0.39408189
0.094709665 0.097298607 0.39537245
0.094995506 0.097288236 0.39539844
0.095281363 0.097277865 0.3954244
0.095567219 0.097267486 0.39545038
0.095853068 0.097257115 0.39547634
0.096138924 0.097246744 0.39550233
0.096424773 0.097236373 0.39552829
0.096710622 0.097225994 0.39555427
0.098017745 0.09736076 0.39669037
0.098304324 0.097350359 0.39671642
0.098590888 0.097339965 0.39674243
0.060728017 0.10119703 0.40552843
0.067010731 0.099871561 0.399995
0.067301624 0.099861003 0.40002143
0.067592517 0.099850453 0.40004787
0.067796722 0.099660113 0.39904901
0.0680869 0.099649586 0.39907539
0.06837707 0.099639051 0.39910176
0.06866724 0.099628523 0.39912811
0.068957411 0.099617995 0.39915448
0.069446743 0.099417329 0.39818156
0.069736198 0.099406824 0.39820787
0.070025645 0.099396318 0.39823416
0.0703151 0.099385813 0.39826047
0.070604548 0.099375308 0.39828676
0.07089401 0.09936481 0.39831308
0.072243065 0.09913294 0.39741823
0.072531797 0.099122465 0.39744446
0.073584914 0.098901331 0.39652279
0.074919567 0.098669976 0.39562666
0.077853121 0.098197691 0.39385843
0.079282381 0.098145828 0.39398831
0.091141 0.097532585 0.39404842
0.091711268 0.097511888 0.39410022
0.09386085 0.097616799 0.39531294
0.094146706 0.097606428 0.39533889
0.094718412 0.097585678 0.39539084
0.095575966 0.097554557 0.39546877
0.095861815 0.097544186 0.39549473
0.096147671 0.097533815 0.39552072
0.09643352 0.097523443 0.39554667
0.097453378 0.097669356 0.39665672
0.097739942 0.097658955 0.39668277
0.098026507 0.097648554 0.39670879
0.098313086 0.097638153 0.39673483
0.098599665 0.097627759 0.39676088
0.06044184 0.10150422 0.40552059
0.060737047 0.10149351 0.40554741
0.061032262 0.10148279 0.40557423
0.061327476 0.10147208 0.40560105
0.066728748 0.10017425 0.39998728
0.067019634 0.10016369 0.40001372
0.067310527 0.10015314 0.40004015
0.06760142 0.10014258 0.40006658
0.068095773 0.099941 0.39909407
0.068385944 0.099930473 0.39912042
0.068676114 0.099919938 0.3991468
0.068966284 0.09990941 0.39917317
0.069455601 0.099708013 0.39820018
0.069745056 0.099697508 0.3982265
0.070034504 0.099687003 0.39825279
0.070323959 0.099676497 0.3982791
0.070613407 0.099665992 0.39830539
0.074928358 0.0989585 0.39564514
0.075215645 0.098948076 0.39567125
0.07550294 0.098937646 0.39569736
0.078147724 0.098474398 0.39390281
0.091149732 0.097818933 0.39406675
0.091434866 0.097808585 0.39409265
0.093012042 0.097934999 0.39525339
0.093297891 0.09792462 0.39527938
0.09358374 0.097914249 0.39530534
0.093869597 0.097903877 0.39533132
0.094155453 0.097893506 0.39535728
0.094441302 0.097883128 0.39538327
0.094727159 0.097872756 0.39540923
0.095013 0.097862385 0.39543521
0.095298856 0.097852014 0.39546117
0.095584713 0.097841635 0.39548716
0.095870562 0.097831264 0.39551312
0.096156418 0.097820893 0.3955391
0.096888997 0.097977944 0.39662308
0.097175561 0.097967543 0.39664912
0.09746214 0.097957149 0.39667517
0.097748719 0.097946748 0.39670119
0.098035283 0.097936347 0.39672723
0.098321863 0.097925946 0.39675328
0.060155656 0.10181141 0.40551275
0.060450871 0.1018007 0.4055396
0.060746077 0.10178999 0.40556642
0.061041292 0.10177927 0.40559325
0.066737644 0.10046639 0.400006
0.06702853 0.10045583 0.40003243
0.067319423 0.10044528 0.40005884
0.067814477 0.10024294 0.39908636
0.068104655 0.10023241 0.39911273
0.068394825 0.10022188 0.39913908
0.068684995 0.10021135 0.39916545
0.068975165 0.10020082 0.39919183
0.06946446 0.099998705 0.39821881
0.069753915 0.0999882 0.3982451
0.070043363 0.099977694 0.39827141
0.070332818 0.099967189 0.3982977
0.073602542 0.099479809 0.39655983
0.073890552 0.099469364 0.396586
0.074178562 0.099458918 0.39661217
0.074466586 0.099448457 0.39663833
0.07493715 0.099247016 0.39566362
0.075224437 0.099236593 0.39568973
0.075511731 0.099226162 0.39571583
0.078728169 0.098740719 0.39397314
0.079585731 0.098709598 0.39405105
0.080157429 0.098688856 0.39410299
0.09115845 0.098105282 0.39408511
0.091443583 0.098094933 0.39411101
0.093020789 0.098222069 0.39527178
0.093306638 0.098211691 0.39529777
0.093592487 0.09820132 0.39532372
0.093878344 0.098190948 0.39534971
0.0941642 0.098180577 0.39537567
0.094450049 0.098170199 0.39540166
0.094735906 0.098159827 0.39542761
0.095021747 0.098149456 0.3954536
0.095307603 0.098139085 0.39547956
0.096611179 0.098276146 0.39661548
0.096897759 0.098265745 0.39664152
0.097184323 0.098255344 0.39666757
0.097470902 0.09824495 0.39669359
0.097757481 0.098234549 0.39671963
0.060164694 0.10210788 0.40553176
0.060459901 0.10209718 0.40555859
0.060755115 0.10208646 0.40558541
0.061050329 0.10207575 0.40561223
0.066746548 0.10075852 0.40002471
0.067037433 0.10074796 0.40005115
0.067328326 0.1007374 0.40007755
0.067823358 0.10053435 0.39910504
0.068113536 0.10052382 0.39913139
0.068403706 0.10051329 0.39915776
0.068693876 0.10050276 0.39918414
0.068984047 0.10049223 0.39921048
0.069473311 0.10028939 0.39823744
0.069762766 0.10027888 0.39826372
0.070052221 0.10026838 0.39829004
0.070341676 0.10025787 0.39831632
0.070631117 0.10024737 0.39834264
0.073323339 0.099779502 0.39655218
0.073899373 0.09975861 0.39660454
0.074187383 0.09974815 0.3966307
0.074945942 0.099535532 0.3956821
0.075520523 0.099514678 0.39573431
0.07580781 0.099504255 0.39576042
0.07845106 0.099038161 0.39396554
0.079308622 0.099007048 0.39404348
0.079880327 0.098986298 0.39409542
0.090882048 0.098401979 0.39407754
0.09274368 0.098519512 0.39526421
0.093029536 0.09850914 0.39529017
0.093315385 0.098498762 0.39531615
0.093601234 0.09848839 0.39534211
0.093887091 0.098478019 0.3953681
0.094744653 0.098446898 0.395446
0.095030494 0.098436527 0.39547199
0.096333377 0.09857434 0.39660788
0.096619956 0.098563939 0.39663392
0.096906535 0.098553538 0.39665994
0.0971931 0.098543137 0.39668599
0.097479679 0.098532744 0.39671203
0.098052807 0.098511942 0.3967641
0.098339386 0.098501541 0.39679015
0.059878517 0.10241507 0.40552393
0.060173724 0.10240436 0.40555075
0.060468938 0.10239365 0.40557757
0.060764145 0.10238294 0.40560439
0.061059359 0.10237222 0.40563121
0.061579566 0.10216753 0.40466094
0.062684447 0.10194162 0.40374374
0.067046337 0.1010401 0.40006983
0.068122409 0.10081523 0.39915004
0.06841258 0.10080469 0.39917642
0.06870275 0.10079417 0.39920279
0.06899292 0.10078364 0.39922914
0.069192722 0.10059058 0.39822975
0.06948217 0.10058008 0.39825606
0.069771625 0.10056958 0.39828235
0.070061073 0.10055907 0.39830866
0.073044136 0.10007919 0.39654455
0.073332161 0.10006875 0.39657071
0.07362017 0.10005829 0.39659688
0.074954726 0.099824056 0.39570057
0.07771495 0.09953808 0.39493382
0.07903152 0.099304497 0.39403588
0.079317369 0.099294126 0.39406186
0.079603225 0.099283747 0.39408782
0.080174923 0.099263005 0.39413977
0.090605646 0.098698668 0.39406997
0.090890765 0.098688327 0.39409587
0.091175899 0.098677978 0.3941218
0.093038283 0.098796219 0.39530855
0.093324132 0.09878584 0.39533454
0.093609981 0.098775469 0.3953605
0.093895838 0.098765098 0.39538649
0.094467543 0.098744348 0.39543843
0.095039241 0.098723605 0.39549038
0.096342154 0.098862134 0.39662632
0.096628718 0.098851733 0.39665234
0.096915297 0.098841332 0.39667839
0.097201861 0.098830931 0.39670444
0.059887547 0.10271154 0.40554291
0.060182761 0.10270083 0.40556973
0.060477968 0.10269012 0.40559655
0.060773183 0.10267941 0.40562338
0.06129409 0.10247397 0.40465313
0.062399659 0.10224731 0.40373597
0.062693432 0.10223665 0.40376264
0.062987208 0.10222599 0.40378934
0.06813129 0.10110664 0.39916873
0.068421461 0.10109612 0.3991951
0.069201581 0.10088126 0.39824837
0.069491029 0.10087077 0.39827466
0.069780484 0.10086026 0.39830098
0.070069931 0.10084976 0.39832726
0.073052958 0.10036844 0.39656308
0.073340967 0.10035798 0.39658925
0.073917001 0.10033709 0.39664158
0.074493021 0.10031618 0.39669392
0.075825386 0.10008129 0.39579737
0.077437147 0.099836268 0.39492622
0.078468554 0.099612311 0.39400232
0.07875441 0.099601939 0.39402831
0.079897821 0.099560447 0.3941322
0.08018367 0.099550076 0.39415815
0.09032923 0.098995373 0.3940624
0.090614364 0.098985024 0.3940883
0.090899497 0.098974682 0.39411423
0.093332879 0.099072911 0.39535293
0.093618728 0.09906254 0.39537889
0.093904585 0.099052168 0.39540488
0.09447629 0.099031419 0.39545682
0.096350916 0.099149927 0.39664474
0.096637495 0.099139526 0.39667079
0.096924074 0.099129125 0.39669684
0.097210638 0.099118724 0.39672285
0.097783782 0.09909793 0.39677495
0.059896585 0.10300802 0.40556189
0.060191792 0.1029973 0.40558872
0.060487006 0.1029866 0.40561554
0.060782213 0.10297588 0.40564236
0.061008614 0.10278039 0.40464532
0.061821107 0.10256365 0.40370148
0.062114883 0.102553 0.40372816
0.062408652 0.10254233 0.40375486
0.062702432 0.10253167 0.40378156
0.06321539 0.1023258 0.40281051
0.068430342 0.10138752 0.39921376
0.06921044 0.10117196 0.398267
0.069499888 0.10116146 0.39829329
0.069789343 0.10115095 0.3983196
0.07007879 0.10114045 0.39834589
0.071429871 0.10090417 0.39745098
0.072773755 0.10066813 0.39655542
0.073061764 0.10065769 0.39658159
0.073349774 0.10064723 0.39660776
0.073637784 0.10063678 0.39663395
0.074213818 0.10061587 0.39668629
0.07439772 0.10042194 0.39568534
