# .PCD v0.7 - Point Cloud Data file format
VERSION 0.7
FIELDS x y z
SIZE 4 4 4
TYPE F F F
COUNT 1 1 1
WIDTH 1383
HEIGHT 1
VIEWPOINT 0 0 0 1 0 0 0
POINTS 1383
DATA ascii
0.075610355 0.095098063 0.39587018
0.076189093 0.095091797 0.39586812
0.076278143 0.094855689 0.39486724
0.076855443 0.094849437 0.39486516
0.077144086 0.094846316 0.39486414
0.077432729 0.094843186 0.3948631
0.077721372 0.094840065 0.39486206
0.078010023 0.094836935 0.39486104
0.078298666 0.094833814 0.39486
0.078587316 0.094830684 0.39485896
0.079164602 0.094824433 0.3948569
0.079453245 0.094821312 0.39485586
0.079820812 0.094582193 0.39385402
0.080108739 0.094579078 0.39385298
0.08039666 0.094575956 0.39385197
0.0809725 0.09456972 0.39384988
0.081260428 0.094566606 0.39384887
0.081548356 0.094563492 0.39384782
0.082124196 0.094557256 0.39384577
0.082412116 0.094554134 0.39384472
0.082700044 0.094551019 0.39384371
0.082987957 0.094547905 0.39384267
0.083275884 0.094544783 0.39384162
0.083563805 0.094541669 0.39384061
0.083631881 0.094305798 0.39283985
0.083919071 0.094302692 0.39283884
0.084493466 0.09429647 0.39283678
0.084780671 0.094293356 0.39283574
0.085355066 0.094287142 0.39283368
0.085642271 0.094284028 0.39283267
0.085929468 0.094280921 0.39283162
0.087078258 0.094268486 0.39282751
0.087365463 0.094265372 0.3928265
0.087652661 0.094262265 0.39282545
0.087939858 0.094259158 0.39282444
0.088227063 0.094256043 0.3928234
0.088514253 0.094252937 0.39282236
0.088801458 0.09424983 0.39282134
0.089663051 0.094240502 0.39281824
0.089950249 0.094237387 0.39281723
0.090237446 0.09423428 0.39281619
0.091913551 0.094451264 0.39381069
0.092201471 0.094448149 0.39380965
0.092489392 0.094445027 0.39380863
0.092777319 0.094441913 0.39380759
0.093065239 0.094438791 0.39380655
0.094792776 0.09442009 0.39380038
0.095328756 0.094649427 0.39479896
0.063194685 0.097645268 0.40492016
0.06349057 0.097642064 0.40491909
0.064082332 0.097635657 0.40491697
0.064211883 0.097398393 0.40391594
0.06450703 0.097395197 0.4039149
0.064802192 0.097392 0.40391383
0.064928852 0.097154759 0.40291286
0.065223292 0.097151577 0.40291178
0.065517716 0.097148389 0.40291074
0.065641478 0.09691117 0.40190977
0.065935194 0.096907988 0.4019087
0.066349767 0.096667647 0.40090668
0.066642754 0.096664473 0.40090564
0.06693574 0.096661299 0.4009046
0.067521706 0.096654959 0.40090248
0.07066872 0.096149154 0.39889014
0.070960261 0.096145995 0.39888909
0.071938403 0.095899545 0.39788505
0.072229214 0.095896393 0.39788401
0.072520033 0.095893241 0.39788297
0.072620645 0.095656276 0.39688209
0.072910734 0.095653139 0.39688104
0.073490918 0.095646858 0.39687896
0.073781013 0.095643714 0.39687791
0.074071102 0.095640577 0.39687687
0.074456029 0.095400549 0.39587498
0.074745402 0.09539742 0.39587393
0.07503476 0.095394284 0.39587289
0.075324133 0.095391154 0.39587185
0.075613499 0.095388018 0.39587083
0.075902872 0.095384888 0.39586979
0.076192237 0.095381752 0.39586875
0.076281279 0.095144913 0.39486787
0.07685858 0.095138662 0.39486581
0.077147223 0.09513554 0.39486477
0.077724509 0.095129289 0.39486271
0.078013159 0.095126159 0.39486167
0.078301802 0.095123038 0.39486063
0.078590453 0.095119908 0.39485958
0.078879096 0.095116787 0.39485857
0.079167739 0.095113657 0.39485753
0.079456381 0.095110536 0.39485648
0.079745032 0.095107414 0.39485547
0.079823941 0.094870701 0.39385465
0.080111869 0.094867587 0.3938536
0.080399789 0.094864465 0.39385259
0.080687717 0.094861351 0.39385155
0.080975629 0.094858229 0.39385054
0.081263557 0.094855115 0.39384949
0.081551485 0.094852 0.39384845
0.081839398 0.094848879 0.39384744
0.082127325 0.094845764 0.39384639
0.082415245 0.094842643 0.39384535
0.082703173 0.094839528 0.39384434
0.082991086 0.094836414 0.39384329
0.083279014 0.094833292 0.39384228
0.083566934 0.094830178 0.39384124
0.083922185 0.09459047 0.39283946
0.08420939 0.094587356 0.39283845
0.08449658 0.094584249 0.39283741
0.084783785 0.094581135 0.39283636
0.08507099 0.094578028 0.39283535
0.08535818 0.094574921 0.39283431
0.085645385 0.094571806 0.39283329
0.08593259 0.0945687 0.39283225
0.08621978 0.094565593 0.39283124
0.087655775 0.094550043 0.39282608
0.08794298 0.094546936 0.39282507
0.088230185 0.094543822 0.39282402
0.088517375 0.094540715 0.39282301
0.089325376 0.094767831 0.39382061
0.089613304 0.094764709 0.39381957
0.089901224 0.094761595 0.39381853
0.090189144 0.094758473 0.39381751
0.092204601 0.094736658 0.39381027
0.093068369 0.0947273 0.3938072
0.094465964 0.094948024 0.39480272
0.097026818 0.095156178 0.39579409
0.099019058 0.095370464 0.39678749
0.099599242 0.095364183 0.39678541
0.062768131 0.098182991 0.40592286
0.063064739 0.09817978 0.40592182
0.063197896 0.097941741 0.40492079
0.063789658 0.097935334 0.40491867
0.064215086 0.097694136 0.4039166
0.064343184 0.097456165 0.4029156
0.064637616 0.097452976 0.40291455
0.064932048 0.097449787 0.40291348
0.065350957 0.097208656 0.40191147
0.065644659 0.097205475 0.40191039
0.066059962 0.096964389 0.40090838
0.066352949 0.096961223 0.40090734
0.066645935 0.096958049 0.40090629
0.066938922 0.096954875 0.40090522
0.067056894 0.096717007 0.39990428
0.067349166 0.096713841 0.39990324
0.069102742 0.096694857 0.39989695
0.070671886 0.096441276 0.39889076
0.070963427 0.096438117 0.39888972
0.071359932 0.096197248 0.39788777
0.071650743 0.096194096 0.39788672
0.071941562 0.096190952 0.39788568
0.072232373 0.0961878 0.39788464
0.072913885 0.095943823 0.39688167
0.073494069 0.095937543 0.39687958
0.073784165 0.095934398 0.39687854
0.074074253 0.095931262 0.39687753
0.074169792 0.095693633 0.39587665
0.074459165 0.095690496 0.3958756
0.074748538 0.095687367 0.39587456
0.075616635 0.095677964 0.39587146
0.075906008 0.095674835 0.39587042
0.076195374 0.095671698 0.39586937
0.076861709 0.095427886 0.39486644
0.077150352 0.095424764 0.39486539
0.077438995 0.095421635 0.39486438
0.077727638 0.095418513 0.39486334
0.078304932 0.095412262 0.39486125
0.078593582 0.095409133 0.39486024
0.078882225 0.095406011 0.39485919
0.079170868 0.095402882 0.39485815
0.079748161 0.095396638 0.3948561
0.079827063 0.095159195 0.39385527
0.080402911 0.095152959 0.39385322
0.080978751 0.095146723 0.39385116
0.081266679 0.095143609 0.39385012
0.081554607 0.095140494 0.39384907
0.081842519 0.095137373 0.39384806
0.082130447 0.095134258 0.39384702
0.082418367 0.095131136 0.39384601
0.082706295 0.095128022 0.39384496
0.082994208 0.095124908 0.39384392
0.083282135 0.095121786 0.39384291
0.083570056 0.095118672 0.39384186
0.083857976 0.09511555 0.39384085
0.083925307 0.094878241 0.39284009
0.084212512 0.094875127 0.39283907
0.084499702 0.09487202 0.39283803
0.084786907 0.094868906 0.39283702
0.085074112 0.094865799 0.39283597
0.087084495 0.094844036 0.39282876
0.087658897 0.094837815 0.39282671
0.087946095 0.094834708 0.39282569
0.0882333 0.094831593 0.39282465
0.08852049 0.094828486 0.39282364
0.088807695 0.09482538 0.39282259
0.089328498 0.095056325 0.39382124
0.089616425 0.095053203 0.3938202
0.089904346 0.095050089 0.39381918
0.090192266 0.095046967 0.39381814
0.090768114 0.095040739 0.39381608
0.092495643 0.09502203 0.39380988
0.09278357 0.095018916 0.39380884
0.093935259 0.095006444 0.39380473
0.094469093 0.095237248 0.39480335
0.094757736 0.095234126 0.3948023
0.06277135 0.098480195 0.40592352
0.06290523 0.098241419 0.40492252
0.063201107 0.098238215 0.40492144
0.063496992 0.098235011 0.40492037
0.063923128 0.097993083 0.4039183
0.06421829 0.097989887 0.40391722
0.064346381 0.097751193 0.40291625
0.064640813 0.097748004 0.40291518
0.065647848 0.09749978 0.40191105
0.065941565 0.097496599 0.40191001
0.066063143 0.097257972 0.40090904
0.06635613 0.097254805 0.40090796
0.066649117 0.097251631 0.40090692
0.067060068 0.09700986 0.39990494
0.070383519 0.09673655 0.39889246
0.071944721 0.096482344 0.39788634
0.072235532 0.096479192 0.39788529
0.072917029 0.096234493 0.3968823
0.073207125 0.096231349 0.39688128
0.073497213 0.096228212 0.39688024
0.073787309 0.096225068 0.3968792
0.074077398 0.096221931 0.39687815
0.074172936 0.095983587 0.39587727
0.074462309 0.095980451 0.39587623
0.074751683 0.095977321 0.39587522
0.075041041 0.095974185 0.39587417
0.07561978 0.095967919 0.39587209
0.075909153 0.095964789 0.39587104
0.075998902 0.09572649 0.39487016
0.076576196 0.095720246 0.39486811
0.077153489 0.095713995 0.39486602
0.077442132 0.095710866 0.39486501
0.077730775 0.095707744 0.39486396
0.078596719 0.095698364 0.39486086
0.079830192 0.095447697 0.3938559
0.08011812 0.095444582 0.39385489
0.08040604 0.095441461 0.39385384
0.080693968 0.095438346 0.3938528
0.08098188 0.095435224 0.39385179
0.081269808 0.09543211 0.39385074
0.081557736 0.095428996 0.39384973
0.081845649 0.095425874 0.39384869
0.082133576 0.09542276 0.39384764
0.082421497 0.095419638 0.39384663
0.082709424 0.095416524 0.39384559
0.083285265 0.095410287 0.39384353
0.083573185 0.095407173 0.39384249
0.083861105 0.095404051 0.39384148
0.084149025 0.095400937 0.39384043
0.084436953 0.095397823 0.39383939
0.085012794 0.095391586 0.39383733
0.085300721 0.095388465 0.39383632
0.08645241 0.095376 0.39383218
0.08674033 0.095372878 0.39383116
0.08702825 0.095369764 0.39383012
0.08731617 0.095366642 0.39382908
0.087604098 0.095363528 0.39382806
0.087892026 0.095360413 0.39382702
0.088179938 0.095357291 0.39382598
0.088467866 0.095354177 0.39382496
0.088755786 0.095351055 0.39382392
0.089043707 0.095347941 0.39382291
0.089331627 0.095344827 0.39382187
0.089619555 0.095341705 0.39382082
0.089907475 0.09533859 0.39381981
0.090195395 0.095335469 0.39381877
0.091922931 0.095316768 0.39381257
0.092210852 0.095313653 0.39381155
0.092498772 0.095310532 0.39381051
0.0927867 0.095307417 0.3938095
0.09307462 0.095304295 0.39380845
0.093606286 0.095535859 0.39480707
0.094183579 0.095529608 0.39480501
0.094472229 0.095526479 0.39480397
0.099025354 0.095951818 0.39678875
0.062774569 0.098777391 0.40592417
0.062908441 0.0985379 0.40492314
0.063204318 0.098534696 0.4049221
0.063500203 0.098531492 0.40492103
0.063631177 0.098292038 0.40391999
0.063926332 0.098288842 0.40391895
0.064221494 0.098285645 0.40391788
0.064349577 0.098046213 0.40291688
0.064644009 0.098043025 0.40291584
0.064938441 0.098039836 0.40291479
0.06523288 0.098036654 0.40291372
0.065357335 0.09779726 0.40191275
0.065651037 0.097794078 0.40191171
0.065944754 0.097790897 0.40191063
0.066066325 0.09755154 0.40090966
0.066359311 0.097548373 0.40090862
0.067063242 0.097302713 0.39990556
0.068816818 0.097283728 0.39989927
0.070095144 0.097031839 0.39889413
0.070386685 0.09702868 0.39889309
0.071366243 0.096780047 0.39788905
0.072238684 0.096770599 0.39788592
0.072920181 0.09652517 0.39688295
0.073210277 0.096522026 0.39688191
0.073500365 0.096518889 0.39688087
0.073790461 0.096515745 0.39687982
0.074080549 0.096512608 0.39687878
0.074176081 0.096273541 0.3958779
0.074754827 0.096267276 0.39587584
0.075044185 0.096264139 0.3958748
0.075333558 0.09626101 0.39587376
0.075912297 0.096254744 0.3958717
0.076290675 0.096012592 0.39486977
0.076579325 0.096009471 0.39486873
0.076867975 0.096006341 0.39486769
0.077156618 0.096003219 0.39486668
0.077445261 0.09600009 0.39486563
0.077733904 0.095996968 0.39486459
0.078022555 0.095993839 0.39486358
0.078311197 0.095990717 0.39486253
0.078599848 0.095987588 0.39486149
0.078888491 0.095984466 0.39486045
0.079833314 0.095736206 0.39385653
0.080121242 0.095733091 0.39385551
0.080409162 0.095729969 0.39385447
0.080697089 0.095726855 0.39385346
0.080985002 0.095723733 0.39385241
0.08127293 0.095720619 0.39385137
0.081560858 0.095717505 0.39385036
0.08184877 0.095714383 0.39384931
0.082136698 0.095711268 0.3938483
0.082424618 0.095708147 0.39384726
0.083000459 0.095701918 0.3938452
0.083576307 0.095695682 0.39384311
0.083864227 0.09569256 0.3938421
0.084152147 0.095689446 0.39384106
0.084728003 0.09568321 0.393839
0.085591763 0.095673859 0.3938359
0.085879691 0.095670737 0.39383489
0.086167604 0.095667623 0.39383385
0.086455531 0.095664509 0.3938328
0.086743452 0.095661387 0.39383179
0.087031372 0.095658273 0.39383075
0.087319292 0.095655151 0.3938297
0.08760722 0.095652036 0.39382869
0.087895148 0.095648922 0.39382765
0.08818306 0.0956458 0.39382663
0.088470988 0.095642686 0.39382559
0.088758908 0.095639564 0.39382455
0.089046828 0.09563645 0.39382353
0.089334749 0.095633335 0.39382249
0.089622676 0.095630214 0.39382145
0.089910597 0.095627099 0.39382043
0.090198517 0.095623977 0.39381939
0.091638133 0.095608391 0.39381424
0.093032129 0.095831335 0.39480978
0.093320772 0.095828205 0.39480874
0.093609415 0.095825084 0.39480773
0.093898065 0.095821954 0.39480668
0.094186708 0.095818833 0.39480564
0.094475359 0.095815703 0.3948046
0.09873841 0.096245632 0.39679044
0.062047821 0.099321254 0.40692797
0.062481191 0.099077798 0.40592587
0.062777795 0.099074587 0.40592483
0.062911652 0.098834373 0.4049238
0.063207529 0.098831169 0.40492275
0.063503414 0.098827966 0.40492168
0.063634381 0.098587781 0.40392065
0.063929535 0.098584585 0.40391958
0.064224698 0.098581389 0.40391853
0.064352773 0.098341241 0.40291753
0.064647205 0.098338053 0.40291649
0.064941637 0.098334864 0.40291542
0.065360524 0.098091558 0.40191337
0.065654226 0.098088376 0.40191233
0.065947942 0.098085195 0.40191129
0.066069506 0.097845115 0.40091032
0.066362493 0.097841948 0.40090927
0.067066416 0.097595565 0.39990622
0.068819992 0.097576581 0.39989993
0.070098303 0.097323969 0.39889479
0.070389844 0.09732081 0.39889374
0.071369402 0.097071446 0.39788967
0.071660213 0.097068295 0.39788863
0.071951032 0.097065151 0.39788759
0.073503517 0.096809566 0.39688149
0.073793612 0.096806422 0.39688045
0.074083701 0.096803285 0.39687943
0.074179217 0.096563496 0.39587855
0.07446859 0.096560359 0.39587751
0.074757963 0.09655723 0.39587647
0.075047322 0.096554093 0.39587542
0.075336695 0.096550964 0.39587438
0.075915433 0.096544698 0.39587232
0.076005168 0.096304938 0.39487144
0.076582462 0.096298695 0.39486936
0.076871112 0.096295565 0.39486834
0.077159755 0.096292444 0.3948673
0.077448398 0.096289314 0.39486626
0.077737041 0.096286193 0.39486521
0.078314334 0.096279941 0.39486316
0.079836443 0.0960247 0.39385718
0.080124371 0.096021585 0.39385614
0.080412291 0.096018463 0.39385509
0.080700219 0.096015349 0.39385408
0.080988131 0.096012227 0.39385304
0.081563987 0.096005999 0.39385098
0.0818519 0.096002877 0.39384994
0.082139827 0.095999762 0.39384893
0.082427748 0.095996641 0.39384788
0.082715675 0.095993526 0.39384684
0.083291516 0.09598729 0.39384478
0.083579436 0.095984176 0.39384377
0.084443204 0.095974825 0.39384067
0.084731132 0.095971704 0.39383963
0.085019045 0.095968589 0.39383861
0.085306972 0.095965467 0.39383757
0.085594893 0.095962353 0.39383653
0.086170733 0.095956117 0.39383447
0.086746581 0.095949881 0.39383242
0.087034501 0.095946766 0.39383137
0.087322421 0.095943645 0.39383036
0.087610349 0.09594053 0.39382932
0.087898277 0.095937416 0.39382827
0.08818619 0.095934294 0.39382726
0.088474117 0.09593118 0.39382622
0.088762037 0.095928058 0.3938252
0.089049958 0.095924944 0.39382416
0.089337878 0.095921829 0.39382312
0.089625806 0.095918708 0.3938221
0.089913726 0.095915593 0.39382106
0.090201646 0.095912471 0.39382002
0.091641262 0.095896885 0.39381486
0.092217103 0.095890656 0.39381281
0.092746615 0.09612368 0.39481145
0.093612552 0.096114308 0.39480835
0.094189845 0.096108057 0.39480627
0.094478495 0.096104927 0.39480525
0.094767138 0.096101806 0.39480421
0.095344424 0.096095555 0.39480215
0.095633075 0.096092433 0.39480111
0.061456393 0.099625625 0.40693074
0.06248441 0.099375002 0.40592653
0.062914863 0.099130847 0.40492445
0.063210741 0.099127643 0.40492338
0.063342422 0.098886728 0.40392235
0.063637584 0.098883532 0.40392131
0.063932739 0.098880336 0.40392023
0.064227901 0.098877139 0.40391919
0.064355969 0.09863627 0.40291819
0.064650401 0.098633081 0.40291712
0.064776294 0.098392218 0.40191615
0.065069996 0.098389044 0.40191507
0.065363713 0.098385863 0.40191403
0.065657414 0.098382682 0.40191299
0.065951131 0.0983795 0.40191191
0.066072688 0.098138697 0.40091094
0.066365674 0.098135531 0.4009099
0.06835223 0.097635031 0.39890167
0.069809929 0.09761925 0.39889646
0.07010147 0.097616091 0.39889541
0.070209287 0.097375438 0.3978945
0.071081735 0.097365998 0.39789137
0.071372561 0.097362846 0.39789033
0.071663372 0.097359695 0.39788929
0.071954191 0.09735655 0.39788824
0.073506661 0.097100243 0.39688215
0.073892996 0.096856564 0.39588022
0.074182361 0.096853435 0.39587918
0.074471734 0.096850298 0.39587814
0.074761108 0.096847169 0.39587709
0.075050466 0.096844032 0.39587608
0.075918578 0.096834637 0.39587295
0.076008305 0.096594162 0.39487207
0.076296948 0.09659104 0.39487103
0.076874249 0.096584789 0.39486897
0.077162892 0.096581668 0.39486793
0.077451535 0.096578538 0.39486688
0.078317471 0.096569166 0.39486378
0.078606121 0.096566036 0.39486277
0.079839565 0.096313201 0.39385781
0.080127493 0.096310087 0.39385676
0.080415413 0.096306965 0.39385575
0.08070334 0.09630385 0.39385471
0.080991253 0.096300729 0.39385366
0.081279181 0.096297614 0.39385265
0.081567109 0.0962945 0.39385161
0.081855021 0.096291378 0.39385056
0.082142949 0.096288264 0.39384955
0.082430869 0.096285142 0.39384851
0.083294638 0.096275792 0.39384541
0.083870478 0.096269555 0.39384335
0.084158398 0.096266441 0.39384234
0.084734254 0.096260205 0.39384025
0.085022166 0.096257091 0.39383924
0.085598014 0.096250854 0.39383715
0.085885942 0.096247733 0.39383614
0.086173855 0.096244618 0.3938351
0.086461782 0.096241504 0.39383408
0.086749703 0.096238382 0.39383304
0.087037623 0.096235268 0.393832
0.087325543 0.096232146 0.39383098
0.087613471 0.096229032 0.39382994
0.087901399 0.096225917 0.39382893
0.088477239 0.096219681 0.39382684
0.088765159 0.096216559 0.39382583
0.089053079 0.096213445 0.39382479
0.089341 0.096210331 0.39382374
0.089628927 0.096207209 0.39382273
0.089916848 0.096204095 0.39382169
0.091644384 0.096185386 0.39381552
0.092172459 0.096419156 0.39481413
0.093038402 0.096409783 0.39481103
0.093327045 0.096406654 0.39481002
0.093615688 0.096403532 0.39480898
0.094192982 0.096397281 0.39480692
0.094481632 0.096394151 0.39480588
0.099290885 0.097060576 0.39779028
0.06145962 0.099923559 0.4069314
0.06175695 0.09992034 0.40693033
0.062191021 0.099675417 0.40592825
0.063345626 0.099182472 0.403923
0.063640788 0.099179275 0.40392193
0.063935943 0.099176079 0.40392089
0.064231105 0.099172883 0.40391982
0.064359166 0.09893129 0.40291882
0.064653598 0.098928101 0.40291777
0.065073185 0.098683342 0.40191573
0.065366901 0.098680161 0.40191469
0.065660603 0.09867698 0.40191361
0.06595432 0.098673798 0.40191257
0.066075869 0.098432265 0.4009116
0.066368856 0.098429099 0.40091056
0.069813095 0.097911373 0.39889708
0.070104636 0.097908214 0.39889604
0.071375713 0.097654246 0.39789096
0.071957342 0.09764795 0.39788887
0.072059356 0.097406618 0.39688796
0.072349444 0.097403482 0.39688691
0.072929628 0.097397201 0.39688486
0.073219724 0.097394057 0.39688382
0.073509812 0.09739092 0.39688277
0.07389614 0.097146519 0.39588085
0.074185506 0.097143389 0.39587981
0.074474879 0.097140253 0.39587876
0.074764252 0.097137123 0.39587775
0.075342983 0.097130857 0.39587566
0.075921722 0.097124591 0.39587358
0.076011434 0.096883394 0.3948727
0.076300077 0.096880272 0.39487165
0.076877378 0.096874021 0.3948696
0.077166021 0.096870899 0.39486855
0.077454664 0.09686777 0.39486754
0.078031957 0.096861519 0.39486545
0.0783206 0.096858397 0.39486444
0.079266854 0.096607946 0.39386049
0.079554781 0.096604824 0.39385948
0.079842694 0.09660171 0.39385843
0.080130622 0.096598595 0.39385739
0.08070647 0.096592359 0.39385533
0.080994383 0.096589237 0.39385432
0.08128231 0.096586123 0.39385328
0.081570238 0.096583009 0.39385223
0.081858151 0.096579887 0.39385122
0.082146078 0.096576773 0.39385018
0.082433999 0.096573651 0.39384913
0.083873607 0.096558064 0.39384398
0.084161527 0.09655495 0.39384297
0.084449455 0.096551836 0.39384192
0.085025296 0.096545599 0.39383987
0.085313223 0.096542478 0.39383882
0.085889071 0.096536241 0.39383677
0.086176984 0.096533127 0.39383572
0.086464912 0.096530013 0.39383471
0.086752832 0.096526891 0.39383367
0.087040752 0.096523777 0.39383265
0.087328672 0.096520655 0.39383161
0.0876166 0.096517541 0.39383057
0.087904528 0.096514426 0.39382955
0.088192441 0.096511304 0.39382851
0.088480368 0.09650819 0.39382747
0.088768288 0.096505068 0.39382645
0.089056209 0.096501954 0.39382541
0.089344129 0.09649884 0.3938244
0.089632057 0.096495718 0.39382336
0.089919977 0.096492603 0.39382231
0.091886953 0.096711516 0.3948158
0.092175588 0.096708387 0.39481479
0.093907468 0.096689634 0.39480856
0.094196111 0.096686512 0.39480755
0.098421589 0.097361416 0.39779404
0.098712407 0.097358271 0.39779299
0.099584848 0.097348824 0.39778987
0.06116553 0.1002247 0.40693313
0.061601032 0.099979036 0.40593103
0.061897639 0.099975824 0.40592995
0.06334883 0.09947823 0.40392363
0.063939147 0.099471837 0.40392151
0.064362362 0.099226318 0.40291947
0.064656794 0.099223129 0.40291843
0.06537009 0.098974459 0.40191531
0.065663792 0.098971277 0.40191427
0.065957509 0.098968096 0.40191323
0.06607905 0.098725848 0.40091223
0.066783674 0.098477282 0.39990917
0.069816262 0.098203503 0.39889774
0.070107803 0.098200344 0.39889669
0.071088046 0.097948804 0.39789262
0.071669683 0.097942501 0.39789054
0.071772411 0.097700439 0.39688966
0.072062507 0.097697295 0.39688861
0.072352596 0.097694159 0.39688757
0.073222876 0.097684734 0.39688444
0.073512964 0.097681597 0.3968834
0.07380306 0.097678453 0.39688236
0.073899277 0.097436473 0.39588147
0.074188642 0.097433344 0.39588043
0.074478015 0.097430207 0.39587942
0.074767388 0.097427078 0.39587837
0.07534612 0.097420812 0.39587629
0.076014571 0.097172625 0.39487332
0.076303214 0.097169504 0.39487231
0.076591864 0.097166382 0.39487126
0.077169158 0.097160131 0.39486921
0.077457801 0.097157001 0.39486817
0.078694135 0.096902676 0.3938632
0.078982055 0.096899554 0.39386216
0.079269975 0.09689644 0.39386111
0.079557903 0.096893318 0.3938601
0.079845816 0.096890204 0.39385906
0.080133744 0.096887089 0.39385805
0.080421664 0.096883968 0.393857
0.080709592 0.096880853 0.39385596
0.080997504 0.096877731 0.39385495
0.081285432 0.096874617 0.3938539
0.08157336 0.096871503 0.39385286
0.081861272 0.096868381 0.39385185
0.0821492 0.096865267 0.3938508
0.08243712 0.096862145 0.39384979
0.082725048 0.09685903 0.39384875
0.083012961 0.096855916 0.3938477
0.083876729 0.096846558 0.39384463
0.084164649 0.096843444 0.39384359
0.084740505 0.096837208 0.39384153
0.085316345 0.096830972 0.39383945
0.085604265 0.096827857 0.39383844
0.085892193 0.096824735 0.39383739
0.086180106 0.096821621 0.39383638
0.086468033 0.096818507 0.39383534
0.086755954 0.096815385 0.39383429
0.087043874 0.096812271 0.39383328
0.087331794 0.096809149 0.39383224
0.087619722 0.096806034 0.39383119
0.08790765 0.09680292 0.39383018
0.088195562 0.096799798 0.39382914
0.08848349 0.096796684 0.39382812
0.08877141 0.096793562 0.39382708
0.089059331 0.096790448 0.39382604
0.089347251 0.096787333 0.39382502
0.089635178 0.096784212 0.39382398
0.089923099 0.096781097 0.39382297
0.091312796 0.097006992 0.39481851
0.091601439 0.09700387 0.39481747
0.091890089 0.097000748 0.39481646
0.093044668 0.096988246 0.39481232
0.093621954 0.096981995 0.39481023
0.093910605 0.096978866 0.39480922
0.098133937 0.097655974 0.39779574
0.098424748 0.097652823 0.39779469
0.099006377 0.097646527 0.39779261
0.099297196 0.097643383 0.39779156
0.060871433 0.10052584 0.40693483
0.061168756 0.10052262 0.40693375
0.06160425 0.10027624 0.40593168
0.061900858 0.10027303 0.40593061
0.063352033 0.099773981 0.40392429
0.063647196 0.099770784 0.40392324
0.064071126 0.099524535 0.40292117
0.064365558 0.099521346 0.40292013
0.065079562 0.099271946 0.40191701
0.065373279 0.099268764 0.40191597
0.065666981 0.099265583 0.40191489
0.065960698 0.099262401 0.40191385
0.066082224 0.099019423 0.40091288
0.066668198 0.099013083 0.40091076
0.066786848 0.098770127 0.39990982
0.06824816 0.098754302 0.39990458
0.069819421 0.098495625 0.39889836
0.070110962 0.098492466 0.39889732
0.071091205 0.098240197 0.39789328
0.071382031 0.098237045 0.39789224
0.071672842 0.098233894 0.39789119
0.071775556 0.097991109 0.39689028
0.072065651 0.097987965 0.39688924
0.07235574 0.097984828 0.3968882
0.072645836 0.097981684 0.39688715
0.07322602 0.097975403 0.39688507
0.073516108 0.097972266 0.39688405
0.073902421 0.09772642 0.39588213
0.074191786 0.09772329 0.39588109
0.074481159 0.097720154 0.39588004
0.074770533 0.097717024 0.395879
0.075059891 0.097713888 0.39587796
0.075349264 0.097710758 0.39587694
0.075638629 0.097707622 0.3958759
0.076306343 0.09745872 0.39487293
0.076594993 0.097455598 0.39487189
0.078121416 0.097197406 0.39386588
0.078697264 0.097191177 0.39386383
0.078985184 0.097188056 0.39386278
0.079273105 0.097184941 0.39386177
0.079848945 0.097178705 0.39385968
0.080424793 0.097172469 0.39385763
0.080712721 0.097169355 0.39385659
0.081000634 0.097166233 0.39385557
0.081576489 0.097160004 0.39385352
0.081864402 0.097156882 0.39385247
0.082152329 0.097153768 0.39385143
0.08244025 0.097150646 0.39385042
0.082728177 0.097147532 0.39384937
0.08301609 0.097144417 0.39384836
0.083304018 0.097141296 0.39384732
0.083591938 0.097138181 0.39384627
0.083879858 0.09713506 0.39384526
0.085319474 0.097119473 0.3938401
0.085607395 0.097116359 0.39383906
0.085895322 0.097113237 0.39383802
0.086471163 0.097107008 0.39383596
0.086759083 0.097103886 0.39383495
0.087047003 0.097100772 0.39383391
0.087334923 0.09709765 0.39383286
0.087622851 0.097094536 0.39383185
0.087910779 0.097091421 0.39383081
0.088198692 0.0970883 0.39382976
0.088486619 0.097085185 0.39382875
0.08877454 0.097082064 0.39382771
0.08906246 0.097078949 0.39382669
0.089926228 0.097069599 0.39382359
0.090502076 0.097063363 0.39382151
0.091315925 0.097296208 0.39481914
0.091604568 0.097293086 0.39481813
0.091893218 0.097289965 0.39481708
0.093047798 0.097277462 0.39481294
0.098137096 0.097947367 0.39779636
0.098427907 0.097944215 0.39779532
0.098718725 0.097941071 0.39779428
0.099009536 0.097937919 0.39779323
0.099300355 0.097934775 0.39779219
0.061310869 0.10057665 0.40593338
0.061607469 0.10057344 0.40593231
0.061904076 0.10057022 0.40593126
0.06306009 0.10007292 0.40392599
0.063355237 0.10006972 0.40392494
0.063650399 0.10006653 0.40392387
0.063945554 0.10006333 0.40392283
0.064074323 0.099819556 0.40292183
0.064368755 0.099816367 0.40292075
0.065082751 0.099566244 0.40191767
0.065376468 0.099563062 0.40191659
0.065499432 0.099319339 0.40091562
0.065792419 0.099316165 0.40091458
0.066378392 0.099309824 0.40091246
0.066671379 0.09930665 0.40091142
0.068251334 0.099047154 0.3999052
0.069531046 0.098790906 0.39890006
0.069822587 0.098787755 0.39889902
0.070114128 0.098784596 0.39889798
0.070803545 0.098534748 0.39789495
0.071676001 0.098525301 0.39789182
0.071778707 0.098281786 0.39689091
0.072358891 0.098275505 0.39688882
0.072648987 0.098272361 0.39688781
0.073616184 0.098019511 0.3958838
0.073905557 0.098016374 0.39588276
0.074194923 0.098013245 0.39588171
0.074484296 0.098010108 0.39588067
0.074773669 0.098006979 0.39587963
0.075063027 0.098003842 0.39587861
0.075352401 0.098000713 0.39587757
0.075931139 0.097994447 0.39587548
0.07630948 0.097747952 0.39487356
0.07659813 0.09774483 0.39487252
0.076886781 0.097741701 0.3948715
0.077175424 0.097738579 0.39487046
0.077464066 0.09773545 0.39486942
0.078124538 0.097485915 0.39386651
0.078988306 0.097476564 0.39386341
0.079276226 0.09747345 0.3938624
0.079564154 0.097470328 0.39386135
0.079852067 0.097467214 0.39386031
0.080139995 0.0974641 0.3938593
0.080427915 0.097460978 0.39385825
0.080715843 0.097457863 0.39385724
0.081003755 0.097454742 0.3938562
0.081291683 0.097451627 0.39385515
0.081579611 0.097448513 0.39385414
0.081867523 0.097445391 0.3938531
0.082443371 0.097439155 0.39385104
0.082731299 0.097436041 0.39385
0.08330714 0.097429805 0.39384794
0.08359506 0.09742669 0.3938469
0.08388298 0.097423568 0.39384589
0.084458828 0.09741734 0.39384383
0.084746756 0.097414218 0.39384279
0.085034668 0.097411104 0.39384174
0.085322596 0.097407982 0.39384073
0.085610516 0.097404867 0.39383969
0.085898444 0.097401746 0.39383867
0.086186357 0.097398631 0.39383763
0.086474285 0.097395517 0.39383659
0.086762205 0.097392395 0.39383557
0.087050125 0.097389281 0.39383453
0.087338045 0.097386159 0.39383349
0.087625973 0.097383045 0.39383247
0.087913901 0.09737993 0.39383143
0.088201813 0.097376809 0.39383042
0.088489741 0.097373694 0.39382938
0.088777661 0.097370572 0.39382833
0.089065582 0.097367458 0.39382732
0.08992935 0.097358108 0.39382422
0.09021727 0.097354986 0.39382318
0.091319062 0.09758544 0.39481977
0.091607705 0.097582318 0.39481875
0.092762284 0.097569816 0.39481461
0.093050934 0.097566694 0.39481357
0.097849429 0.098241925 0.39779803
0.098140255 0.098238774 0.39779699
0.098431066 0.098235622 0.39779595
0.098721884 0.098232478 0.3977949
0.061610695 0.10087064 0.40593296
0.061907303 0.10086743 0.40593189
0.062339168 0.10061963 0.40492982
0.062635042 0.10061643 0.40492874
0.062768131 0.10037187 0.40392768
0.063063294 0.10036868 0.40392664
0.064077519 0.10011458 0.40292245
0.06508594 0.099860542 0.40191829
0.065379657 0.09985736 0.40191725
0.065502614 0.099612921 0.40091625
0.0657956 0.099609748 0.40091521
0.066381574 0.099603407 0.40091312
0.06667456 0.099600233 0.40091208
0.067962244 0.099343173 0.3999069
0.068076521 0.099098824 0.39890593
0.069242679 0.099086195 0.39890173
0.069534212 0.099083036 0.39890069
0.070515886 0.098829299 0.39789662
0.070806697 0.098826148 0.3978956
0.071097516 0.098823003 0.39789456
0.071201675 0.098578751 0.39689362
0.07149177 0.098575614 0.39689258
0.072071955 0.098569326 0.39689052
0.073232323 0.098556764 0.39688635
0.073329963 0.098312594 0.39588547
0.073908702 0.098306328 0.39588338
0.074198067 0.098303199 0.39588234
0.07448744 0.098300062 0.39588133
0.074776813 0.098296933 0.39588028
0.075066172 0.098293796 0.39587924
0.075355545 0.098290667 0.3958782
0.07564491 0.09828753 0.39587715
0.075934283 0.098284401 0.39587614
0.076601259 0.098034054 0.39487317
0.07688991 0.098030925 0.39487213
0.077178553 0.098027803 0.39487109
0.077467196 0.098024674 0.39487007
0.07783974 0.097777538 0.39386818
0.078127667 0.097774416 0.39386714
0.079279356 0.097761951 0.39386302
0.079567283 0.09775883 0.39386198
0.079855196 0.097755715 0.39386097
0.080143124 0.097752601 0.39385992
0.080431044 0.097749479 0.39385888
0.080718972 0.097746365 0.39385787
0.081006885 0.097743243 0.39385682
0.081294812 0.097740129 0.39385581
0.081870653 0.097733893 0.39385372
0.082734428 0.097724542 0.39385062
0.083022341 0.097721428 0.39384961
0.083310269 0.097718306 0.39384857
0.083598189 0.097715192 0.39384755
0.083886109 0.09771207 0.39384651
0.08417403 0.097708955 0.39384547
0.084461957 0.097705841 0.39384446
0.085037798 0.097699605 0.3938424
0.085325725 0.097696483 0.39384136
0.085613646 0.097693369 0.39384031
0.085901573 0.097690247 0.3938393
0.086189486 0.097687133 0.39383826
0.086477414 0.097684018 0.39383721
0.086765334 0.097680897 0.3938362
0.087053254 0.097677782 0.39383516
0.087341174 0.09767466 0.39383414
0.087629102 0.097671546 0.3938331
0.08791703 0.097668432 0.39383206
0.088204943 0.09766531 0.39383104
0.08849287 0.097662196 0.39383
0.088780791 0.097659074 0.39382899
0.089068711 0.097655959 0.39382794
0.089356631 0.097652845 0.3938269
0.089644559 0.097649723 0.39382589
0.089932479 0.097646609 0.39382485
0.090220399 0.097643487 0.3938238
0.091033541 0.097877793 0.39482144
0.091322191 0.097874664 0.39482042
0.09247677 0.097862169 0.39481628
0.092765413 0.09785904 0.39481524
0.098143406 0.098530173 0.39779764
0.098434217 0.098527022 0.3977966
0.098725036 0.098523878 0.39779556
0.061317313 0.10117105 0.40593469
0.061613914 0.10116784 0.40593362
0.061910521 0.10116463 0.40593255
0.062046494 0.10091931 0.40493152
0.062342379 0.10091611 0.40493047
0.062638253 0.10091291 0.4049294
0.062771335 0.10066763 0.40392834
0.063361645 0.10066123 0.40392622
0.063656807 0.10065804 0.40392518
0.064080715 0.10040961 0.40292311
0.066091768 0.099900149 0.40091482
0.066677742 0.099893808 0.4009127
0.067965411 0.099636018 0.39990753
0.069537379 0.099375159 0.39890134
0.070519045 0.099120699 0.39789727
0.070809856 0.099117547 0.39789623
0.071494915 0.098866284 0.39689323
0.072075099 0.098859996 0.39689115
0.072365187 0.098856859 0.3968901
0.073235467 0.098847434 0.39688697
0.073911846 0.098596275 0.39588401
0.074201211 0.098593146 0.39588299
0.074490584 0.098590009 0.39588195
0.075069316 0.098583743 0.39587986
0.075648054 0.098577477 0.39587781
0.075937428 0.098574348 0.39587677
0.077181689 0.098317027 0.39487171
0.077470332 0.098313898 0.3948707
0.077842861 0.098066032 0.3938688
0.078130789 0.09806291 0.39386779
0.078706637 0.098056681 0.3938657
0.078994557 0.09805356 0.39386469
0.079282477 0.098050445 0.39386365
0.079570405 0.098047324 0.39386261
0.079858318 0.098044209 0.39386159
0.080146246 0.098041095 0.39386055
0.080434166 0.098037973 0.39385954
0.081010006 0.098031737 0.39385745
0.081297934 0.098028623 0.39385644
0.081585862 0.098025508 0.39385539
0.081873775 0.098022386 0.39385435
0.082161702 0.098019272 0.39385334
0.082449622 0.09801615 0.39385229
0.08273755 0.098013036 0.39385128
0.083025463 0.098009922 0.39385024
0.083313391 0.0980068 0.39384919
0.083601311 0.098003685 0.39384818
0.083889231 0.098000564 0.39384714
0.084177151 0.097997449 0.39384612
0.084465079 0.097994335 0.39384508
0.084753007 0.097991213 0.39384404
0.085040919 0.097988099 0.39384302
0.085328847 0.097984977 0.39384198
0.085616767 0.097981863 0.39384094
0.085904695 0.097978741 0.39383993
0.086192608 0.097975627 0.39383888
0.086480536 0.097972512 0.39383787
0.086768456 0.09796939 0.39383683
0.087056376 0.097966276 0.39383578
0.087344296 0.097963154 0.39383477
0.087632224 0.09796004 0.39383373
0.087920152 0.097956926 0.39383271
0.088208064 0.097953804 0.39383167
0.088495992 0.097950689 0.39383063
0.088783912 0.097947568 0.39382961
0.089071833 0.097944453 0.39382857
0.089359753 0.097941339 0.39382753
0.089647681 0.097938217 0.39382651
0.090459384 0.098173268 0.39482415
0.092479907 0.098151393 0.39481691
0.098691314 0.099059507 0.39879686
0.061753828 0.10121898 0.40493321
0.062049706 0.10121578 0.40493217
0.062479381 0.10096657 0.40393004
0.062774539 0.10096337 0.403929
0.063364848 0.10095698 0.40392688
0.063495047 0.10071101 0.40292585
0.067968585 0.099928878 0.39990819
0.070522204 0.099412099 0.3978979
0.070813015 0.099408947 0.39789686
0.07120797 0.099160098 0.3968949
0.071498066 0.099156961 0.39689386
0.071788155 0.099153817 0.39689282
0.072948523 0.099141255 0.39688867
0.073046871 0.098895632 0.39588776
0.073336244 0.098892495 0.39588672
0.073625609 0.098889366 0.39588568
0.073914982 0.098886229 0.39588466
0.074204348 0.0988831 0.39588362
0.074493721 0.098879963 0.39588258
0.074783094 0.098876834 0.39588153
0.075072452 0.098873697 0.39588049
0.075361826 0.098870568 0.39587948
0.075452946 0.098625004 0.39487857
0.075741589 0.098621882 0.39487752
0.076030232 0.098618753 0.39487648
0.078421839 0.098348305 0.39386737
0.078709766 0.09834519 0.39386633
0.078997687 0.098342068 0.39386532
0.079573534 0.098335832 0.39386326
0.079861447 0.098332718 0.39386222
0.080149375 0.098329604 0.39386117
0.080437295 0.098326482 0.39386016
0.080725223 0.098323368 0.39385912
0.081013136 0.098320246 0.3938581
0.081588991 0.098314017 0.39385602
0.081876904 0.098310895 0.39385501
0.082164831 0.098307781 0.39385396
0.082452752 0.098304659 0.39385292
0.082740679 0.098301545 0.39385191
0.083028592 0.09829843 0.39385086
0.08331652 0.098295309 0.39384985
0.08360444 0.098292194 0.39384881
0.08389236 0.098289073 0.39384776
0.084468208 0.098282844 0.39384571
0.084756136 0.098279722 0.39384466
0.085044049 0.098276608 0.39384365
0.085331976 0.098273486 0.39384261
0.085619897 0.098270372 0.39384159
0.085907824 0.09826725 0.39384055
0.086195737 0.098264135 0.39383951
0.086483665 0.098261021 0.3938385
0.086771585 0.098257899 0.39383745
0.087059505 0.098254785 0.39383644
0.087347426 0.098251663 0.3938354
0.087635353 0.098248549 0.39383435
0.087923281 0.098245434 0.39383334
0.088211194 0.098242313 0.3938323
0.088499121 0.098239198 0.39383125
0.088787042 0.098236077 0.39383024
0.089074962 0.098232962 0.3938292
0.089362882 0.098229848 0.39382818
0.08965081 0.098226726 0.39382714
0.09017387 0.098465621 0.39482582
0.090462513 0.0984625 0.39482477
0.0916171 0.098449998 0.39482063
0.093013339 0.098679453 0.39581621
0.093302712 0.098676324 0.39581519
0.093592077 0.098673187 0.39581415
0.095285647 0.098899409 0.39680862
0.095575742 0.098896265 0.39680758
0.098402947 0.099354789 0.39879856
0.098694481 0.09935163 0.39879751
0.060433943 0.10177508 0.40593916
0.061461154 0.10151867 0.40493494
0.061757039 0.10151546 0.40493387
0.062052917 0.10151226 0.40493283
0.062187422 0.10126551 0.40393177
0.062482584 0.10126232 0.40393069
0.062777743 0.10125912 0.40392965
0.066218182 0.10024071 0.3999151
0.066510446 0.10023755 0.39991406
0.067679495 0.10022489 0.39990988
0.067971759 0.10022173 0.39990881
0.070525363 0.099703506 0.39789855
0.070816174 0.099700354 0.39789751
0.071211122 0.099450774 0.39689553
0.071501218 0.099447638 0.39689448
0.072081402 0.09944135 0.39689243
0.07237149 0.099438213 0.39689139
0.072951674 0.099431932 0.3968893
0.073050015 0.099185586 0.39588839
0.073918127 0.099176183 0.39588529
0.074207492 0.099173054 0.39588425
0.074496865 0.099169917 0.3958832
0.074786238 0.099166788 0.39588219
0.075075597 0.099163651 0.39588115
0.075456083 0.098914228 0.39487919
0.076033369 0.098907977 0.39487714
0.076899312 0.098898605 0.39487404
0.077187955 0.098895483 0.39487299
0.07842496 0.098636806 0.393868
0.078712888 0.098633692 0.39386699
0.079000808 0.09863057 0.39386594
0.079288729 0.098627456 0.3938649
0.079576656 0.098624334 0.39386389
0.079864569 0.098621219 0.39386284
0.080152497 0.098618105 0.39386183
0.080440417 0.098614983 0.39386079
0.080728345 0.098611869 0.39385974
0.081016257 0.098608747 0.39385873
0.081304185 0.098605633 0.39385769
0.081592113 0.098602518 0.39385664
0.082167953 0.098596282 0.39385459
0.082455873 0.098593161 0.39385357
0.082743801 0.098590046 0.39385253
0.083031714 0.098586932 0.39385149
0.083319642 0.09858381 0.39385048
0.083895482 0.098577574 0.39384842
0.08447133 0.098571345 0.39384633
0.084759258 0.098568223 0.39384532
0.085047171 0.098565109 0.39384428
0.085335098 0.098561987 0.39384323
0.085623018 0.098558873 0.39384222
0.085910946 0.098555751 0.39384118
0.086198859 0.098552637 0.39384016
0.086486787 0.098549522 0.39383912
0.086774707 0.098546401 0.39383808
0.087062627 0.098543286 0.39383706
0.087350547 0.098540165 0.39383602
0.087638475 0.09853705 0.39383498
0.087926403 0.098533936 0.39383397
0.088214315 0.098530814 0.39383292
0.088502243 0.0985277 0.39383191
0.088790163 0.098524578 0.39383087
0.089078084 0.098521464 0.39382982
0.089888364 0.098757975 0.39482749
0.09046565 0.098751724 0.3948254
0.0907543 0.098748595 0.39482439
0.091042943 0.098745473 0.39482334
0.091331594 0.098742343 0.3948223
0.091620237 0.098739222 0.39482129
0.091908887 0.098736092 0.39482024
0.092437744 0.098975673 0.39581892
0.092727117 0.098972544 0.39581788
0.093305856 0.098966278 0.39581582
0.093595222 0.098963141 0.39581478
0.096407987 0.099423274 0.39780581
0.096698798 0.099420123 0.39780477
0.097823031 0.099653229 0.3988013
0.098114565 0.099650078 0.39880022
0.098406106 0.099646918 0.39879918
0.09869764 0.099643767 0.39879814
0.061464366 0.10181515 0.4049356
0.062190626 0.10156127 0.40393239
0.062485788 0.10155807 0.40393135
0.066221356 0.10053356 0.39991575
0.067682669 0.10051773 0.39991051
0.067974932 0.10051458 0.39990947
0.070237696 0.099998042 0.39790022
0.070528515 0.099994898 0.39789918
0.070819326 0.099991746 0.39789814
0.07179445 0.099735163 0.3968941
0.072084546 0.099732019 0.39689305
0.072374634 0.099728882 0.39689201
0.07266473 0.099725738 0.39689097
0.072954819 0.099722601 0.39688993
0.073053151 0.099475533 0.39588904
0.073342532 0.099472396 0.395888
0.073631898 0.099469267 0.39588696
0.074789375 0.099456735 0.39588282
0.075078741 0.099453598 0.39588177
0.075368106 0.099450469 0.39588073
0.07545922 0.099203452 0.39487982
0.076325148 0.09919408 0.39487672
0.076902449 0.099187829 0.39487466
0.077191092 0.099184707 0.39487362
0.078716017 0.098922186 0.39386761
0.079003938 0.098919064 0.39386657
0.079291858 0.098915949 0.39386556
0.079579785 0.098912828 0.39386451
0.079867698 0.098909713 0.39386347
0.080155626 0.098906599 0.39386246
0.080443546 0.098903477 0.39386141
0.080731474 0.098900363 0.39386037
0.081307314 0.098894127 0.39385831
0.081595242 0.098891012 0.3938573
0.082459003 0.098881654 0.3938542
0.08274693 0.09887854 0.39385316
0.083034843 0.098875426 0.39385214
0.083322771 0.098872304 0.3938511
0.083610691 0.09886919 0.39385006
0.084186532 0.098862953 0.393848
0.084474459 0.098859839 0.39384696
0.0850503 0.098853603 0.3938449
0.085338227 0.098850481 0.39384389
0.085626148 0.098847367 0.39384285
0.085914075 0.098844245 0.3938418
0.086201988 0.098841131 0.39384079
0.086489916 0.098838016 0.39383975
0.086777836 0.098834895 0.39383873
0.087065756 0.09883178 0.39383769
0.087353677 0.098828658 0.39383665
0.087641604 0.098825544 0.39383563
0.090180144 0.09904407 0.39482707
0.090757437 0.099037819 0.39482501
0.09104608 0.099034697 0.39482397
0.09133473 0.099031568 0.39482296
0.091623373 0.099028446 0.39482191
0.092151523 0.099268757 0.39582059
0.092440888 0.09926562 0.39581957
0.092730254 0.099262491 0.39581853
0.093309 0.099256225 0.39581645
0.093598366 0.099253088 0.3958154
0.096411139 0.099714667 0.39780644
0.09670195 0.099711515 0.39780539
0.097243115 0.09995167 0.39880401
0.097534649 0.099948511 0.39880297
0.098409273 0.099939041 0.39879984
0.098700806 0.099935889 0.39879879
0.061171707 0.10211482 0.4049373
0.06622453 0.10082641 0.39991638
0.067393586 0.10081375 0.39991221
0.067509271 0.10056576 0.39891121
0.069950044 0.1002926 0.39790189
0.070240855 0.10028945 0.39790085
0.070822485 0.10028315 0.39789876
0.071507514 0.10002899 0.39689577
0.071797602 0.10002585 0.39689472
0.072087698 0.1000227 0.39689368
0.072377786 0.10001957 0.39689264
0.072667882 0.10001642 0.39689162
0.07295797 0.10001329 0.39689058
0.073056296 0.099765487 0.39588967
0.073345669 0.09976235 0.39588863
0.073924407 0.099756084 0.39588654
0.075081877 0.099743553 0.3958824
0.075371251 0.099740423 0.39588135
0.075462349 0.099492684 0.39488047
0.076328278 0.099483311 0.39487734
0.076616928 0.099480189 0.39487633
0.076905578 0.09947706 0.39487529
0.077194221 0.099473938 0.39487424
0.078431211 0.099213809 0.39386928
0.078719139 0.099210694 0.39386824
0.079007059 0.099207573 0.39386719
0.07929498 0.099204458 0.39386618
0.079582907 0.099201337 0.39386514
0.07987082 0.099198222 0.3938641
0.080158748 0.099195108 0.39386308
0.080446668 0.099191986 0.39386204
0.080734596 0.099188872 0.39386103
0.081310436 0.099182636 0.39385894
0.082174204 0.099173285 0.39385587
0.082750052 0.099167049 0.39385378
0.083037965 0.099163935 0.39385277
0.083325893 0.099160813 0.39385173
0.083613813 0.099157698 0.39385068
0.083901733 0.099154577 0.39384967
0.084765509 0.099145226 0.39384657
0.085053422 0.099142112 0.39384553
0.085341349 0.09913899 0.39384452
0.085629269 0.099135876 0.39384347
0.085917197 0.099132754 0.39384246
0.08620511 0.09912964 0.39384142
0.086493038 0.099126525 0.39384037
0.086780958 0.099123403 0.39383936
0.087068878 0.099120289 0.39383832
0.087356798 0.099117167 0.39383727
0.087644726 0.099114053 0.39383626
0.089028686 0.099345803 0.39483184
0.089317337 0.099342681 0.39483082
0.08960598 0.099339552 0.39482978
0.090183273 0.099333301 0.39482772
0.090471916 0.099330179 0.39482668
0.090760566 0.09932705 0.39482564
0.091049209 0.099323928 0.39482462
0.09133786 0.099320799 0.39482358
0.091626503 0.099317677 0.39482254
0.092154659 0.099558711 0.39582124
0.092444025 0.099555574 0.3958202
0.092733398 0.099552445 0.39581916
0.093022764 0.099549308 0.39581811
0.093312137 0.099546179 0.39581707
0.093601502 0.099543042 0.39581606
0.096705109 0.10000292 0.39780605
0.097246282 0.1002438 0.39880463
0.097537816 0.10024064 0.39880359
0.098412439 0.10023117 0.39880046
0.098703973 0.10022801 0.39879942
0.058223613 0.10343311 0.40895075
0.058522385 0.10342988 0.40894967
0.061174918 0.1024113 0.40493795
0.066519968 0.1011161 0.39991599
0.066812232 0.10111294 0.39991492
0.067104489 0.10110977 0.39991388
0.06739676 0.10110661 0.39991283
0.067512438 0.10085789 0.39891183
0.067803971 0.10085473 0.39891079
0.068970129 0.10084211 0.39890662
0.070244014 0.10058085 0.39790151
0.071220569 0.10032281 0.39689744
0.071510665 0.10031967 0.39689639
0.071800753 0.10031652 0.39689535
0.072380938 0.10031024 0.39689329
0.072671033 0.1003071 0.39689225
0.072961122 0.10030396 0.39689121
0.07305944 0.10005544 0.3958903
0.073348813 0.1000523 0.39588925
0.073927552 0.10004604 0.3958872
0.074795663 0.10003664 0.39588407
0.075085022 0.10003351 0.39588305
0.075374395 0.10003038 0.39588201
0.075754128 0.099778786 0.39488006
0.076042771 0.099775657 0.39487901
0.076620065 0.099769413 0.39487696
0.076908715 0.099766284 0.39487591
0.077197358 0.099763162 0.3948749
0.077486001 0.099760033 0.39487386
0.077774644 0.099756911 0.39487281
0.07814642 0.099505424 0.39387092
0.078434341 0.09950231 0.39386991
0.078722268 0.099499196 0.39386886
0.079010189 0.099496074 0.39386782
0.079298109 0.09949296 0.39386681
0.079586037 0.099489838 0.39386576
0.079873949 0.099486724 0.39386475
0.080161877 0.099483609 0.39386371
0.080449797 0.099480487 0.39386266
0.080737725 0.099477373 0.39386165
0.081025638 0.099474251 0.39386061
0.081313565 0.099471137 0.3938596
0.081601493 0.099468023 0.39385855
0.082753181 0.09945555 0.39385441
0.083041094 0.099452436 0.3938534
0.083329022 0.099449314 0.39385235
0.083616942 0.0994462 0.39385134
0.084768638 0.099433728 0.3938472
0.085056551 0.099430613 0.39384618
0.085344478 0.099427491 0.39384514
0.085632399 0.099424377 0.3938441
0.085920326 0.099421255 0.39384308
0.086208239 0.099418141 0.39384204
0.086496167 0.099415027 0.393841
0.086784087 0.099411905 0.39383999
0.087072007 0.09940879 0.39383894
0.087359928 0.099405669 0.39383793
0.087877244 0.099647529 0.3948366
0.088165894 0.0996444 0.39483559
0.088454537 0.099641278 0.39483455
0.089031823 0.099635027 0.39483249
0.089320473 0.099631906 0.39483145
0.09018641 0.099622525 0.39482835
0.090475053 0.099619403 0.39482731
0.090763703 0.099616274 0.39482626
0.091052346 0.099613152 0.39482525
0.091579065 0.099854931 0.39582393
0.09186843 0.099851795 0.39582291
0.092157803 0.099848665 0.39582187
0.092447169 0.099845529 0.39582083
0.092736542 0.099842399 0.39581978
0.093025908 0.099839263 0.39581877
0.097249448 0.10053593 0.39880529
0.098124065 0.10052646 0.39880216
0.098415606 0.1005233 0.39880112
0.058226854 0.10373248 0.4089514
0.058525629 0.10372925 0.40895033
0.061905097 0.10245171 0.4039354
0.063216597 0.10218932 0.40293014
0.063511029 0.10218614 0.4029291
0.066523135 0.10140894 0.39991662
0.066815399 0.10140578 0.39991558
0.067107655 0.10140262 0.39991453
0.067399926 0.10139945 0.39991349
0.067515597 0.10115001 0.39891249
0.067807131 0.10114685 0.39891145
0.068681754 0.10113738 0.39890829
0.069665536 0.10087855 0.39790422
0.069956355 0.1008754 0.39790317
0.071119614 0.10086281 0.397899
0.071223713 0.10061347 0.39689809
0.071513809 0.10061034 0.39689705
0.071803898 0.10060719 0.396896
0.072384082 0.10060091 0.39689392
0.072674178 0.10059777 0.39689288
0.072964266 0.10059463 0.39689183
0.073062576 0.10034538 0.39589092
0.073351949 0.10034224 0.39588991
0.074220054 0.10033285 0.39588678
0.074509427 0.10032971 0.39588574
0.075088158 0.10032345 0.39588368
0.076045901 0.10006488 0.39487967
0.076334544 0.10006176 0.39487863
0.076623194 0.10005864 0.39487758
0.076911844 0.10005551 0.39487654
0.077200487 0.10005239 0.39487553
0.07748913 0.10004926 0.39487448
0.077777773 0.10004614 0.39487344
0.078437462 0.099790804 0.39387053
0.07872539 0.09978769 0.39386949
0.07901331 0.099784568 0.39386848
0.079301231 0.099781454 0.39386743
0.079589158 0.099778332 0.39386639
