# .PCD v0.7 - Point Cloud Data file format
VERSION 0.7
FIELDS x y z
SIZE 4 4 4
TYPE F F F
COUNT 1 1 1
WIDTH 1463
HEIGHT 1
VIEWPOINT 0 0 0 1 0 0 0
POINTS 1463
DATA ascii
0.02771594 -2.4272859 1.3130268
0.032688562 -2.4271941 1.3126677
0.036335621 -2.4270847 1.3133488
0.077918455 -2.4276471 1.3118991
0.081415854 -2.4276474 1.3125548
-0.0017294 -2.424535 1.3108507
0.0025619096 -2.4245288 1.3110794
0.0080675697 -2.4242895 1.3112347
0.012526181 -2.4238586 1.3117261
0.01737796 -2.4239876 1.3114489
0.022499567 -2.4239376 1.3112139
0.027807871 -2.4239318 1.3116882
0.032602619 -2.4234231 1.3119135
0.03736335 -2.4230559 1.3119894
0.040689673 -2.4216905 1.311994
0.074359834 -2.4207184 1.3114518
0.077222921 -2.422833 1.3123599
0.081818201 -2.4223523 1.3126187
0.029495515 -2.4176445 1.3139488
0.032486219 -2.4174919 1.312288
0.03685293 -2.4177551 1.3122473
0.041275445 -2.417906 1.3127096
0.073598564 -2.4178038 1.3102365
0.078119092 -2.4176974 1.3125042
0.081857033 -2.4173625 1.3127691
0.029313445 -2.4124606 1.3138652
0.032458987 -2.4125805 1.3121663
0.037097722 -2.4128213 1.3122138
0.041676637 -2.4124959 1.3127322
0.078835234 -2.4125788 1.3122145
0.081399031 -2.4124362 1.3127663
0.029420638 -2.4075482 1.3139069
0.031966317 -2.4074507 1.3121847
0.036326285 -2.4078023 1.3127687
0.041449953 -2.4078689 1.3115759
0.078897439 -2.4084494 1.3128191
0.08115308 -2.4074819 1.3125705
0.029673073 -2.4022179 1.3142538
0.03164988 -2.4027789 1.3123292
0.035287298 -2.4028182 1.313018
0.081589557 -2.4025598 1.3125513
0.029494913 -2.3967817 1.3133894
0.030711615 -2.397949 1.3122618
0.082410924 -2.3975353 1.3124503
0.029218912 -2.3925135 1.3134325
0.030901058 -2.392297 1.3124108
0.082626015 -2.3925419 1.3124028
0.029170694 -2.3875303 1.3138018
0.031161798 -2.3873966 1.312062
0.082613401 -2.3874688 1.3124545
0.029722324 -2.3844614 1.3142095
0.031918332 -2.3825741 1.312857
0.082502298 -2.3824697 1.312588
0.032466449 -2.3776958 1.3126689
0.082514986 -2.3775029 1.3125318
0.029983507 -2.3739994 1.3141108
0.0318138 -2.3723586 1.3129214
0.082767233 -2.3724725 1.3126328
0.031973172 -2.3673971 1.3129805
0.082990199 -2.3674572 1.3124775
0.032467123 -2.3624358 1.3128724
0.083398953 -2.3623805 1.3124644
0.032250505 -2.3575439 1.312603
0.082977138 -2.3575602 1.3124608
0.032325704 -2.3525226 1.3130487
0.083030187 -2.352464 1.3124551
0.085061722 -2.3505135 1.3145647
0.029961413 -2.3462474 1.314981
0.03173608 -2.3475549 1.312801
0.082985215 -2.347425 1.3127452
0.029984063 -2.3434954 1.3145431
0.03178972 -2.3424325 1.3127215
0.082436763 -2.342515 1.3127302
0.029764447 -2.3380017 1.3148961
0.031920105 -2.3375938 1.3127435
0.082841933 -2.3375273 1.3127966
0.031906728 -2.3325477 1.3130096
0.083635218 -2.3326058 1.3126024
0.029767813 -2.3261163 1.3145772
0.031882014 -2.3275244 1.3127992
0.084273443 -2.3277061 1.3126141
0.085245721 -2.3263757 1.3123388
0.029679775 -2.3223248 1.3144214
0.032130964 -2.3227596 1.3127218
0.084288172 -2.3226273 1.3124222
0.085747868 -2.3223667 1.3126123
0.029798333 -2.3180633 1.3141491
0.031025205 -2.3174765 1.3123077
0.084368266 -2.3175838 1.3118964
0.086332619 -2.3173223 1.3128308
0.029735127 -2.3123891 1.3139809
0.031001976 -2.31252 1.3124295
0.084568426 -2.3124743 1.3113434
0.086121805 -2.3123529 1.3128767
0.029453659 -2.3073626 1.3140934
0.031244926 -2.3074067 1.3121171
0.084459439 -2.3073187 1.3111873
0.085796513 -2.307476 1.3128173
0.029498694 -2.3023481 1.3137256
0.031715509 -2.3024776 1.3124503
0.084392644 -2.3024077 1.3119445
0.085577361 -2.3026621 1.3129616
0.029565832 -2.2981644 1.3140794
0.031565398 -2.2973709 1.3125503
0.084551632 -2.2977204 1.3121246
0.085757315 -2.297471 1.3126819
0.02983295 -2.291749 1.3141164
0.031343497 -2.2926574 1.312669
0.084766321 -2.2924588 1.3112217
0.085695811 -2.2925334 1.3126693
0.029297533 -2.2869847 1.3137825
0.03173447 -2.2876294 1.312326
0.084757455 -2.2874007 1.3104266
0.085927956 -2.2874935 1.3125513
0.029261632 -2.2824442 1.3134923
0.031041194 -2.2823346 1.3123282
0.084848419 -2.2828078 1.3104627
0.086421967 -2.2824302 1.3124925
0.029230112 -2.2775645 1.3135856
0.03123902 -2.2775352 1.3122069
0.084970772 -2.2773783 1.3110641
0.086617276 -2.2774467 1.3124913
0.029127657 -2.2723405 1.3131585
0.030845374 -2.272629 1.3111585
0.084791228 -2.2720551 1.3106254
0.086850919 -2.2725224 1.3126816
0.028989071 -2.2674911 1.3127922
0.030308971 -2.266531 1.3133764
0.08475671 -2.2675669 1.3107234
0.08752808 -2.2674427 1.3125676
0.02866034 -2.2624259 1.3125749
0.030777702 -2.2627563 1.3142935
0.084730372 -2.2649002 1.3103497
0.087808885 -2.2624133 1.3124857
0.028194938 -2.2573798 1.3125236
0.08786498 -2.2574298 1.3124418
0.028651124 -2.2524819 1.3125501
0.087830901 -2.2524569 1.3125062
0.028145295 -2.2475846 1.3126547
0.03016494 -2.2479999 1.3104267
0.087728061 -2.2474964 1.3124959
0.028019274 -2.2424929 1.3125283
0.030694848 -2.2413111 1.3136623
0.087920092 -2.2424903 1.3125255
0.028179789 -2.2375073 1.3124404
0.030567594 -2.237098 1.3136094
0.087927975 -2.2374706 1.3124893
0.02792979 -2.2325392 1.3126353
0.030646877 -2.2325301 1.3141114
0.084763184 -2.2323084 1.310481
0.087764174 -2.2324853 1.3124828
0.028256727 -2.2275836 1.3124954
0.030742249 -2.2287791 1.3145247
0.087465785 -2.227483 1.3124294
0.028307635 -2.2225244 1.3126646
0.030522427 -2.222249 1.3142283
0.087834626 -2.2224374 1.3125093
0.028351558 -2.2175014 1.3126019
0.030919211 -2.2178209 1.3141233
0.087695695 -2.2175093 1.3125172
0.02879321 -2.2123277 1.3128247
0.030475922 -2.21349 1.3120005
0.087793998 -2.2125504 1.3125684
0.028880984 -2.2075624 1.312567
0.030849878 -2.2071652 1.3138324
0.087627709 -2.2075424 1.3124564
0.028762748 -2.202534 1.3127385
0.030732656 -2.2036903 1.3118055
0.087238401 -2.2025428 1.3125145
0.029039197 -2.1975877 1.313104
0.030834669 -2.1968055 1.3122004
0.084900454 -2.1978569 1.3107858
0.08694987 -2.1974912 1.3124157
0.029352603 -2.1925395 1.3135527
0.030722739 -2.1924005 1.3114793
0.084874146 -2.1918998 1.3104852
0.086897299 -2.192502 1.3124857
0.029346028 -2.1873181 1.3138533
0.031241028 -2.1875832 1.3123095
0.08488743 -2.1882405 1.3105794
0.08694569 -2.1874731 1.3126247
0.029379431 -2.182735 1.3139273
0.0317683 -2.1822531 1.3124583
0.084854506 -2.1817353 1.3104988
0.08655072 -2.1824579 1.3126938
0.029585227 -2.1774402 1.314188
0.031851992 -2.1777434 1.3124312
0.084785424 -2.177386 1.3106921
0.086177081 -2.177475 1.3127723
0.029675225 -2.1732295 1.3139004
0.031184953 -2.1721492 1.3122463
0.084676161 -2.1716883 1.3107903
0.085805058 -2.1725807 1.3128688
0.02998046 -2.1687927 1.3147132
0.031538229 -2.1675723 1.3127894
0.084707923 -2.1668992 1.3113482
0.085734695 -2.1677041 1.3130827
0.029873943 -2.1636734 1.314183
0.031448286 -2.1622949 1.3126297
0.08451198 -2.1625412 1.3120255
0.085576586 -2.1624928 1.3133515
0.029826619 -2.1557343 1.314568
0.031893115 -2.1575394 1.3129071
0.08433114 -2.1578238 1.3124933
0.085429624 -2.157115 1.3131149
0.032848258 -2.1525021 1.3129115
0.035188019 -2.1504445 1.312475
0.084007144 -2.1523707 1.3126419
0.085340701 -2.1530113 1.3129277
0.033256348 -2.1474686 1.3129009
0.035323497 -2.1477897 1.3128239
0.083495453 -2.1474349 1.3126141
0.085099682 -2.149641 1.3138719
0.032931734 -2.1424096 1.3129216
0.035001788 -2.1400595 1.3102132
0.083796561 -2.1424747 1.3126049
0.085200988 -2.1424272 1.3144513
0.032923162 -2.1375833 1.3128271
0.083383925 -2.1374688 1.3125075
0.085113317 -2.1380544 1.3135566
0.033294778 -2.1325052 1.3128797
0.035211809 -2.1312432 1.3108209
0.082851306 -2.1325181 1.3125428
0.033189472 -2.12747 1.3127201
0.035600197 -2.126914 1.3131092
0.082854621 -2.1274934 1.3124954
0.033365116 -2.1223896 1.3131485
0.03547072 -2.1226885 1.3120698
0.083136044 -2.1224926 1.3126669
0.033806808 -2.1174743 1.3132972
0.035615165 -2.1175241 1.3116996
0.083139353 -2.1174417 1.3127038
0.085193783 -2.1169422 1.3147033
0.03425568 -2.1125844 1.3135645
0.035494674 -2.1121655 1.3115073
0.083369911 -2.1125109 1.3127373
0.033906549 -2.1074691 1.3128376
0.035356477 -2.1068566 1.311938
0.083326966 -2.1076076 1.3127507
0.085269414 -2.1063962 1.314404
0.033283308 -2.1024842 1.3126458
0.03598709 -2.1023812 1.3122057
0.083246566 -2.1024294 1.3127527
0.085077599 -2.1040435 1.3135424
0.033116631 -2.0974927 1.3124797
0.036757894 -2.0975835 1.3122828
0.082758531 -2.0974717 1.312732
0.033319309 -2.0924375 1.3125571
0.036442433 -2.0924268 1.312394
0.082839005 -2.0924914 1.3125628
0.033488426 -2.0874145 1.3126763
0.036318414 -2.0876212 1.3122946
0.082775995 -2.0875385 1.3126374
0.032539472 -2.0825305 1.3125384
0.036380935 -2.0824492 1.312439
0.083213598 -2.0824306 1.3127425
0.03303818 -2.0772743 1.312659
0.035561491 -2.0787416 1.3120105
0.083849251 -2.077461 1.3127589
0.085110031 -2.0776675 1.314325
0.033110879 -2.072495 1.3126745
0.035051845 -2.0743427 1.3111277
0.083750583 -2.0725105 1.3127335
0.085264765 -2.0711303 1.3143936
0.032961242 -2.0673916 1.3128761
0.083734073 -2.0675428 1.3125683
0.085286282 -2.0670238 1.3141671
0.029884042 -2.0615146 1.3146
0.032786887 -2.0624666 1.3126825
0.08393757 -2.0623457 1.3126794
0.085273974 -2.0634341 1.3139206
0.02982997 -2.0589633 1.3146943
0.032595083 -2.0574629 1.3127788
0.083802871 -2.0574157 1.3127606
0.085185342 -2.058239 1.3126156
0.029931908 -2.0506434 1.3145995
0.032488197 -2.0524955 1.3127462
0.083858848 -2.0524459 1.3128231
0.085089587 -2.0517278 1.3137276
0.032049466 -2.0475841 1.3126004
0.083870739 -2.0474815 1.3127635
0.085142732 -2.0474968 1.3129585
0.029589595 -2.040915 1.3146607
0.032289002 -2.0425143 1.3126562
0.083944172 -2.0425262 1.3127087
0.085376419 -2.0410204 1.31415
0.029537408 -2.0384984 1.3145972
0.032395203 -2.0373418 1.3126332
0.083641022 -2.0374324 1.3125001
0.085370257 -2.0380585 1.3138002
0.029796332 -2.0310922 1.3146602
0.032523181 -2.0325789 1.3125769
0.035150953 -2.0307112 1.3107045
0.083527222 -2.0324962 1.3127043
0.085132763 -2.030463 1.3146923
0.029477375 -2.0273013 1.314129
0.032053847 -2.027622 1.3124497
0.035561174 -2.0275192 1.3115408
0.084190845 -2.0277281 1.3126606
0.085618012 -2.026516 1.3137683
0.029617632 -2.022903 1.3140501
0.032214824 -2.0224986 1.3125079
0.03575968 -2.0222869 1.3110776
0.084279545 -2.0226245 1.3126324
0.085593373 -2.0223334 1.3127853
0.029593831 -2.0181687 1.3144808
0.032072499 -2.0173898 1.3126373
0.036405414 -2.0172966 1.311542
0.083925605 -2.0173655 1.3129041
0.085326448 -2.0180328 1.3123236
0.029545734 -2.0139825 1.3149638
0.032577131 -2.0123787 1.3128483
0.036111884 -2.0127885 1.3113071
0.083730817 -2.0124614 1.3127211
0.08510682 -2.0131001 1.3143277
0.032774221 -2.0074582 1.3125989
0.035204165 -2.0094879 1.3109429
0.083879925 -2.0074978 1.3128182
0.085169233 -2.0066524 1.3141867
0.032521274 -2.0025883 1.3126787
0.035001028 -2.0023384 1.3118119
0.084087588 -2.0025148 1.3127583
0.085233837 -2.0025475 1.3130983
0.029748823 -1.997339 1.3144206
0.032061469 -1.9974412 1.3126528
0.036084138 -1.9953386 1.3143575
0.083567165 -1.9974874 1.3127254
0.085175596 -1.9995736 1.3119712
0.032215498 -1.9925123 1.3125391
0.0364471 -1.9923679 1.3140011
0.083261661 -1.9925075 1.3126403
0.02345374 -1.9862164 1.3125836
0.027415469 -1.9861485 1.3131316
0.032403704 -1.987198 1.3125411
0.037980698 -1.9867815 1.312024
0.040844079 -1.9866381 1.3123676
0.079354495 -1.986199 1.3115865
0.083678335 -1.9878787 1.3126299
0.085622124 -1.9861165 1.3124998
0.091733143 -1.985182 1.3117216
0.019235367 -1.9809198 1.3106889
0.023019632 -1.9823315 1.311445
0.027901735 -1.9822706 1.3124391
0.032582078 -1.9824057 1.311877
0.037693635 -1.982304 1.311825
0.040934063 -1.9826186 1.3131155
0.078952573 -1.9821608 1.3122221
0.083131872 -1.9818517 1.3120832
0.086752377 -1.9820321 1.3121362
0.092200376 -1.9817727 1.3119544
0.097986579 -1.9812739 1.3112789
0.1009492 -1.9814409 1.3105106
0.018974114 -1.9773693 1.3106446
0.022833461 -1.9774982 1.3116584
0.027671022 -1.9775521 1.3127464
0.032493081 -1.9773834 1.312361
0.037596371 -1.9775294 1.3120979
0.041196194 -1.9773052 1.3131999
0.078654274 -1.9773864 1.312481
0.08288461 -1.9775193 1.3125552
0.087150611 -1.9774541 1.3123819
0.092382148 -1.9775335 1.3117689
0.097311109 -1.9774019 1.3117535
0.10085347 -1.9781427 1.3110913
0.018438006 -1.9722357 1.3110541
0.022771282 -1.9724852 1.3115978
0.027651818 -1.9725403 1.3126897
0.032514106 -1.97252 1.3122944
0.037451476 -1.9724765 1.3118647
0.041321795 -1.9724721 1.3127915
0.078622021 -1.9727215 1.3127028
0.082733117 -1.9724474 1.3125575
0.08697629 -1.9724772 1.3125817
0.092457056 -1.9724888 1.3125781
0.097160995 -1.9726508 1.3118953
0.10041812 -1.9723703 1.3116105
0.018570373 -1.9673991 1.3109728
0.022762122 -1.9674716 1.3116798
0.027711252 -1.9674114 1.3128282
0.032442708 -1.9674603 1.3123735
0.037449487 -1.9675663 1.3119364
0.041249618 -1.9676691 1.3127484
0.079077847 -1.9675264 1.3126272
0.082868196 -1.967463 1.3126713
0.086983167 -1.9675999 1.3128153
0.092335306 -1.9676158 1.3129423
0.097463384 -1.9671617 1.3112404
0.10058129 -1.9672076 1.3107127
0.018613262 -1.9637113 1.3113513
0.022942733 -1.9629916 1.3120778
0.027670482 -1.9627687 1.312748
0.032568175 -1.9626406 1.3124861
0.037409186 -1.962714 1.3123364
0.041055523 -1.9626215 1.3128539
0.078980654 -1.9630338 1.3129534
0.082262792 -1.9625202 1.3124666
0.087515123 -1.9625307 1.3128047
0.092304982 -1.9626083 1.3133072
0.097535528 -1.9628063 1.3121622
0.10100903 -1.9626992 1.3108401
0.023256967 -1.9597154 1.311448
0.028427187 -1.9583476 1.3125643
0.032708429 -1.9579892 1.3122576
0.037488766 -1.9582003 1.3122375
0.041194044 -1.9582915 1.3125134
0.079399958 -1.9597461 1.3131173
0.082980886 -1.9588442 1.3134903
0.087705866 -1.9583138 1.313063
0.092130534 -1.9580319 1.3138365
0.097521208 -1.95906 1.313243
0.10030764 -1.9594275 1.3122412
0.032014251 -1.9543809 1.310365
0.089358002 -1.9539531 1.3107893
0.090714619 -1.9541765 1.3114226
0.038338713 -2.4714851 1.3191378
0.040375538 -2.4722519 1.3196441
0.0079883775 -2.4652174 1.316595
0.011754796 -2.4655941 1.315729
0.028935933 -2.4657235 1.3180506
0.033495326 -2.4661269 1.3168333
0.037125129 -2.4671812 1.3179665
-0.0051816124 -2.4620385 1.3151107
-0.0019570219 -2.4617844 1.316152
0.0028660502 -2.4615941 1.315936
0.0075889779 -2.4625103 1.3159029
0.012525316 -2.4623322 1.3160774
0.017323373 -2.4620552 1.3163825
0.022503933 -2.4612057 1.3168068
0.028221903 -2.4619966 1.3168881
0.032434918 -2.4624245 1.3159816
0.037321348 -2.462533 1.3168416
0.079262249 -2.4606762 1.3163083
0.082394496 -2.46154 1.3169724
0.085242614 -2.4621921 1.3159002
-0.00181326 -2.4581852 1.3154684
0.0024480962 -2.4580364 1.3154265
0.007458854 -2.4578671 1.315293
0.012790472 -2.4576595 1.3152853
0.017097658 -2.4579539 1.3153255
0.023636261 -2.4586623 1.3170358
0.027566183 -2.4576168 1.317036
0.032855853 -2.4576344 1.3161486
0.037382979 -2.4575832 1.3166268
0.040540967 -2.4567521 1.318802
0.078133635 -2.4577205 1.3171939
0.08211419 -2.4565411 1.3176972
0.08571095 -2.4557967 1.3172071
0.0034377552 -2.4537094 1.3151067
0.0079900799 -2.4528599 1.3151877
0.012685209 -2.4528644 1.3152037
0.016306428 -2.4532859 1.315231
0.020003162 -2.4549959 1.3150831
0.026877075 -2.4524996 1.3178154
0.032881189 -2.4524956 1.3170146
0.037701134 -2.4525876 1.3166776
0.040587023 -2.4536607 1.3166616
0.077776745 -2.4524555 1.3171734
0.082677014 -2.4521785 1.3176636
0.085361786 -2.4541178 1.3177056
0.0035858327 -2.4465885 1.3151358
0.0071268929 -2.4480879 1.3150904
0.012225314 -2.4494693 1.3150629
0.01638158 -2.4494228 1.3150327
0.023262504 -2.4459898 1.3151256
0.027240654 -2.4471717 1.3171293
0.032875869 -2.4473667 1.3169286
0.037379432 -2.4473956 1.316811
0.040168341 -2.4487522 1.3167278
0.078051165 -2.4475477 1.3168926
0.082561798 -2.4474475 1.317512
-3.4784895e-05 -2.4400225 1.3150289
0.0033707826 -2.4416888 1.3152039
0.0074048629 -2.4419334 1.3152252
0.012390102 -2.4413834 1.315151
0.017741483 -2.441381 1.3152463
0.022563914 -2.4425125 1.3151679
0.027639847 -2.4424839 1.3169224
0.032684885 -2.4424796 1.3167092
0.037024252 -2.4425066 1.3169618
0.041077685 -2.4404123 1.3198134
0.078276858 -2.4427981 1.3167404
0.082686119 -2.4425428 1.3176219
-0.0004753728 -2.4364634 1.3152275
0.0029504898 -2.4372878 1.3153025
0.0072107236 -2.4372659 1.3153708
0.012381627 -2.4373963 1.3152444
0.017307172 -2.4378927 1.3152797
0.022849519 -2.4379363 1.3152033
0.027457515 -2.4375746 1.3165271
0.032350659 -2.4373224 1.3167475
0.036868136 -2.4372935 1.317264
0.040703051 -2.4377654 1.3185799
0.078235991 -2.4374793 1.3173776
0.082842924 -2.4375908 1.3177639
-0.00032049607 -2.4347551 1.3150233
0.0032287594 -2.433193 1.3153161
0.0070975474 -2.4327865 1.3154795
0.012470276 -2.4324033 1.315457
0.01633339 -2.4326556 1.3151994
0.023749596 -2.4329865 1.3152262
0.027428264 -2.4325974 1.3166161
0.03247669 -2.43262 1.3167934
0.036861565 -2.4325092 1.3168393
0.041058827 -2.432898 1.3189213
0.077883057 -2.4326692 1.3170731
0.082590692 -2.4325273 1.317692
0.0041617448 -2.4290922 1.3152224
0.0084870504 -2.4289451 1.3153907
0.012580821 -2.4280326 1.3154082
0.015816614 -2.4279749 1.3152435
0.024696732 -2.4296074 1.3151113
0.028391726 -2.4278638 1.3171399
0.032543428 -2.4278226 1.316874
0.037620701 -2.4276595 1.3166934
0.041171711 -2.4287477 1.319559
0.077655569 -2.4276397 1.316885
0.08213675 -2.4275858 1.3175975
0.02832613 -2.4225788 1.3175356
0.032443468 -2.4224164 1.3174897
0.038506169 -2.4229145 1.3171377
0.040497825 -2.4220331 1.3174201
0.077657774 -2.4226813 1.317076
0.082317911 -2.4224117 1.3176845
0.027799217 -2.417541 1.3175876
0.032517739 -2.4175379 1.3176255
0.038006891 -2.4172881 1.3179493
0.04093121 -2.4178417 1.317664
0.074925236 -2.415343 1.315181
0.078063339 -2.4175687 1.3180106
0.082158484 -2.4174705 1.3175766
0.028147085 -2.4125607 1.3176075
0.032597139 -2.4124832 1.3177514
0.037940174 -2.4135265 1.3170875
0.041132782 -2.4131761 1.3185632
0.077934772 -2.4133852 1.317507
0.081927404 -2.4125042 1.3177251
0.02878822 -2.4074314 1.3174931
0.032071237 -2.4075615 1.3178271
0.038664725 -2.4065957 1.3164237
0.040861778 -2.40716 1.3163711
0.078540199 -2.4083743 1.3185513
0.082054868 -2.4074752 1.3175987
0.028989708 -2.4023249 1.3177278
0.031619795 -2.4024229 1.3177038
0.082119301 -2.4025269 1.3175677
0.028933998 -2.3973179 1.3177782
0.030861918 -2.397505 1.3172214
0.082578093 -2.3975146 1.3177017
0.028509233 -2.3923872 1.3176098
0.030773053 -2.3923893 1.3173033
0.082919136 -2.3925586 1.317729
0.028740449 -2.3873672 1.3177398
0.030683506 -2.3874049 1.3173102
0.082994543 -2.3873324 1.3177588
0.029076653 -2.3828347 1.3178877
0.03084635 -2.3822258 1.3172367
0.082738444 -2.3825145 1.3176811
0.028893532 -2.3774335 1.3181225
0.030938612 -2.377604 1.3171163
0.082858503 -2.3775606 1.3177313
0.085154153 -2.3764701 1.3173738
0.028812919 -2.3724692 1.3175813
0.03090468 -2.3723431 1.3176948
0.083118923 -2.3724761 1.3176494
0.085182272 -2.3725023 1.3175641
0.029012376 -2.3676438 1.3177505
0.031315897 -2.3674729 1.3173782
0.083242461 -2.3675039 1.3175428
0.085886821 -2.3674312 1.3180315
0.029360335 -2.3622959 1.3178979
0.031914271 -2.3628507 1.3174332
0.083242521 -2.3624477 1.3174686
0.08754231 -2.362241 1.3189266
0.029370509 -2.357542 1.317776
0.031851552 -2.3574162 1.3171825
0.083217271 -2.3574977 1.3174784
0.086472109 -2.3573132 1.3181335
0.02938254 -2.3524537 1.3179882
0.031760734 -2.3523889 1.3172874
0.08343447 -2.3523571 1.3177165
0.085843414 -2.3528428 1.316836
0.029683819 -2.347841 1.3180475
0.031565979 -2.3473277 1.3172386
0.083080567 -2.3475304 1.3174772
0.029637458 -2.3427055 1.3179076
0.031694222 -2.3424406 1.3173681
0.08315514 -2.342494 1.3175932
0.02953589 -2.3376482 1.3177803
0.031745911 -2.3372824 1.3173637
0.083134018 -2.337605 1.317587
0.029409675 -2.3322937 1.3177645
0.031529427 -2.3325803 1.3171179
0.083382636 -2.3325944 1.3174418
0.085175268 -2.3302152 1.3199903
0.028931122 -2.327265 1.317754
0.031544946 -2.3275783 1.3172408
0.083957732 -2.327594 1.3172919
0.08550752 -2.32724 1.3180319
0.029091785 -2.3223836 1.3175728
0.03216818 -2.3225946 1.3178592
0.08459688 -2.3230898 1.3176004
0.085769914 -2.3221765 1.31744
0.029417843 -2.3175316 1.3175707
0.031364307 -2.3176281 1.3176582
0.08478038 -2.3180289 1.3187751
0.086168744 -2.3174133 1.3174218
0.029384535 -2.3126109 1.3176665
0.031631246 -2.3123531 1.3177363
0.084863596 -2.3119493 1.3184094
0.085799478 -2.3125551 1.3173889
0.029059522 -2.3074136 1.3175558
0.032475904 -2.3074353 1.3177348
0.084770642 -2.3074574 1.3189712
0.085750334 -2.3075056 1.3174007
0.029014546 -2.3023329 1.3175497
0.032163594 -2.3026295 1.3178362
0.08456818 -2.3021691 1.3180259
0.086149402 -2.3027136 1.3175918
0.028838664 -2.2973995 1.317543
0.031553958 -2.297718 1.3177212
0.084539548 -2.2980068 1.3177544
0.086152732 -2.2973769 1.3177776
0.028940523 -2.2925529 1.3179662
0.031119622 -2.2926254 1.3172449
0.084812328 -2.2918024 1.3182454
0.08601258 -2.2925179 1.3175422
0.028610382 -2.2874885 1.3177028
0.031178609 -2.2875223 1.3173037
0.084714316 -2.2889986 1.3193214
0.086453855 -2.287354 1.3175622
0.028141435 -2.2824414 1.3176757
0.031050084 -2.2826116 1.3169435
0.086976573 -2.282517 1.3177241
0.02838981 -2.2775447 1.3177223
0.030774832 -2.2773912 1.3170617
0.08691562 -2.2774775 1.3177147
0.028143676 -2.2724018 1.3174839
0.030858353 -2.2725623 1.3175191
0.087305233 -2.2724202 1.3178127
0.028480753 -2.2672193 1.3176479
0.030257117 -2.2683518 1.3167443
0.088122658 -2.2673843 1.3177577
0.028008351 -2.2624886 1.3178169
0.030459741 -2.2623682 1.3161043
0.088319577 -2.262464 1.3177482
0.027709043 -2.2574172 1.3177598
0.030341508 -2.2595246 1.3161479
0.088561811 -2.2574773 1.3177098
0.027376216 -2.2523363 1.3176521
0.088486746 -2.2524827 1.3177243
0.090109311 -2.2545805 1.3194013
0.02688062 -2.2475531 1.3175565
0.088071816 -2.247515 1.3177595
0.027131854 -2.242588 1.3176522
0.030351624 -2.2414551 1.3155695
0.087846816 -2.2425554 1.3177191
0.027295383 -2.2374265 1.3177248
0.0302737 -2.2373095 1.3156983
0.088223726 -2.237452 1.3178062
0.02731633 -2.2324951 1.3178163
0.030374013 -2.2323329 1.3162291
0.087980561 -2.2324405 1.3176198
0.090085708 -2.2320843 1.3196141
0.027453933 -2.22737 1.3177068
0.030550018 -2.2280011 1.3166407
0.087595567 -2.2274923 1.3176877
0.027538061 -2.2225218 1.3176816
0.030453259 -2.2219558 1.3163593
0.088136092 -2.222434 1.3176701
0.027117465 -2.2175074 1.3177969
0.030570617 -2.2175696 1.3165162
0.08864408 -2.2174144 1.317862
0.090313666 -2.2167974 1.3182659
0.027350267 -2.212527 1.3177867
0.030393001 -2.2125254 1.3166323
0.088153124 -2.2125669 1.3177463
0.090147465 -2.2146201 1.3179953
0.027817512 -2.2076383 1.3177537
0.030686714 -2.2074339 1.316994
0.087723382 -2.2075262 1.3176956
0.028002614 -2.2023356 1.3177676
0.030583329 -2.203084 1.3171574
0.084933661 -2.2033355 1.3197664
0.087419331 -2.202507 1.3176706
0.027944161 -2.1975801 1.3176901
0.030770043 -2.1974158 1.317209
0.087594606 -2.197479 1.3177543
0.02835561 -2.1925175 1.3178372
0.030495189 -2.1924336 1.3172166
0.087303676 -2.1924126 1.3176588
0.027833853 -2.1874475 1.3176782
0.030839911 -2.1876009 1.3173352
0.084969938 -2.1896548 1.3181319
0.086839698 -2.1874306 1.3174658
0.0285748 -2.1825783 1.3176081
0.031510185 -2.1824474 1.3173815
0.084944159 -2.1815023 1.3179507
0.086506553 -2.1825812 1.3174632
0.029278729 -2.1776145 1.3176278
0.031929649 -2.1773694 1.3176382
0.084849127 -2.1774139 1.3179126
0.08612369 -2.1775517 1.3174559
0.029387752 -2.1726108 1.3175598
0.031615146 -2.172406 1.3176018
0.084761627 -2.1717348 1.3194177
0.086010814 -2.1725154 1.3174413
0.029399242 -2.1679802 1.318138
0.031583011 -2.1673336 1.3173399
0.08438579 -2.1667652 1.3184406
0.085971437 -2.167613 1.3173066
0.029388946 -2.1626062 1.3180257
0.031600386 -2.1624095 1.3173755
0.084175624 -2.1625416 1.3176545
0.085925631 -2.1625471 1.3173444
0.02933801 -2.1573179 1.3180186
0.032143209 -2.1576304 1.3176186
0.084502466 -2.1573045 1.317515
0.085419871 -2.1576836 1.3173946
0.029576154 -2.1537259 1.3177203
0.032281116 -2.1521742 1.3177984
0.084173664 -2.1522763 1.3174531
0.085290924 -2.1531141 1.3176336
0.029931784 -2.1474969 1.3196839
0.032253858 -2.1475306 1.3177446
0.035038963 -2.1484151 1.3186839
0.083936445 -2.1475465 1.3175066
0.085177071 -2.1469524 1.3171676
0.032139074 -2.1425009 1.317618
0.083512008 -2.1425254 1.3174852
0.085477799 -2.1423609 1.317518
0.029920254 -2.1367526 1.3184578
0.031959556 -2.1374154 1.3177124
0.083647206 -2.1372521 1.3175125
0.085349046 -2.1382492 1.3178095
0.032464638 -2.1325088 1.3176801
0.035037547 -2.1319194 1.3193924
0.083157241 -2.1325564 1.3175445
0.032967452 -2.1275411 1.3177832
0.035189796 -2.126277 1.3167582
0.083114125 -2.1274972 1.317546
0.032889627 -2.1225355 1.3177593
0.035229251 -2.1237524 1.3177822
0.083161093 -2.1224549 1.3175204
0.033130754 -2.1175542 1.3175454
0.035162002 -2.1159549 1.3184822
0.083002828 -2.1175442 1.3176692
0.085347474 -2.1170511 1.3169687
0.032989867 -2.1124928 1.3176448
0.035231803 -2.1121969 1.3188624
0.083278902 -2.112453 1.3174829
0.08506795 -2.1147592 1.3159086
0.032697901 -2.1075158 1.3175608
0.035274349 -2.1073184 1.3180026
0.083054572 -2.1074717 1.3174269
0.085404448 -2.1057651 1.3154397
0.03294779 -2.1024826 1.3176514
0.035229687 -2.1028292 1.3178058
0.08281374 -2.1025436 1.3174516
0.085429393 -2.1048284 1.315406
0.032769173 -2.097502 1.3177136
0.035285395 -2.097636 1.3175219
0.082746342 -2.0974874 1.3175409
0.033144481 -2.0924711 1.3177985
0.035172928 -2.0920978 1.3161432
0.083429217 -2.0925145 1.3175387
0.085031785 -2.090786 1.317855
0.033074632 -2.0874326 1.3177749
0.035234068 -2.0886257 1.3162273
0.083006062 -2.0874991 1.3175371
0.032956313 -2.0825274 1.3178329
0.03520089 -2.0815167 1.3156183
0.083078787 -2.0824306 1.3175067
0.032645419 -2.0774198 1.3176923
0.035261258 -2.0797801 1.3152241
0.083661593 -2.077508 1.3174464
0.031964034 -2.0725312 1.3176748
0.08363235 -2.0726519 1.3175677
0.085330211 -2.0713034 1.3160887
0.02965267 -2.0657651 1.3197609
0.032168657 -2.0675013 1.3177198
0.083665408 -2.0674589 1.3175541
0.085244209 -2.0677009 1.3158631
0.029471759 -2.0619168 1.3178915
0.032505613 -2.0626254 1.3176093
0.083695233 -2.062506 1.3174471
0.0851776 -2.0627172 1.3166854
0.029723568 -2.058172 1.3175976
0.032293607 -2.057276 1.3177539
0.083697505 -2.057477 1.3173609
0.08533214 -2.0576053 1.3181862
0.029664226 -2.0523398 1.3181343
0.032080114 -2.0524523 1.3175365
0.083893344 -2.0525348 1.3174348
0.085151285 -2.0520282 1.3177902
0.02963856 -2.0487394 1.3175899
0.031623892 -2.0473123 1.3177284
0.083912782 -2.047487 1.317531
0.085105255 -2.0471065 1.3177576
0.029129012 -2.041702 1.317518
0.031267598 -2.0428112 1.3178366
0.08400353 -2.042587 1.3175669
0.085316069 -2.0412924 1.3161786
0.028899321 -2.0375235 1.3175354
0.032067761 -2.037406 1.3179191
0.08364635 -2.0376587 1.3176559
0.085504465 -2.0374577 1.317367
0.029200576 -2.0323453 1.3175273
0.032295808 -2.0325572 1.3178302
0.035041444 -2.0301168 1.3163422
0.083927378 -2.0324345 1.3175055
0.085264668 -2.0330715 1.3173131
0.028185781 -2.027566 1.3175222
0.03232028 -2.0274532 1.317708
0.035299461 -2.0273983 1.3164396
0.084034175 -2.0275588 1.3175038
0.085715987 -2.0261662 1.3164766
0.028523345 -2.0225642 1.3175313
0.032660007 -2.022445 1.3176622
0.035153322 -2.0236385 1.3162249
0.084052995 -2.0224562 1.3177034
0.085683607 -2.0228643 1.3172104
0.028859166 -2.0175734 1.3175197
0.032498386 -2.0175498 1.3178834
0.08378993 -2.0173657 1.3173722
0.085263886 -2.0183978 1.3186699
0.029567404 -2.0127504 1.3178642
0.032272227 -2.0124452 1.3177592
0.083819583 -2.0124915 1.3174169
0.085081883 -2.0127444 1.3175694
0.029857801 -2.0079074 1.3195533
0.031703129 -2.0074916 1.3177569
0.083469927 -2.007616 1.3175789
0.085297637 -2.0068991 1.316669
0.029964201 -2.0049617 1.3199899
0.031766191 -2.0025158 1.3176968
0.083890691 -2.0025973 1.3175703
0.085163429 -2.0025439 1.3164374
0.02939436 -1.9972315 1.3177294
0.031634744 -1.9977111 1.3176328
0.035277359 -1.9956163 1.3169855
0.083620548 -1.997438 1.3175203
0.085121058 -1.9982185 1.3167614
0.029140361 -1.9922447 1.3185824
0.031309571 -1.9925324 1.3173404
0.035779644 -1.9927518 1.316504
0.083511554 -1.9924419 1.3175004
0.085119531 -1.9908512 1.3191203
0.029198354 -1.9874556 1.3180057
0.031732075 -1.9875782 1.3174224
0.037661534 -1.9873993 1.3170874
0.042124178 -1.9864904 1.3176564
0.078673281 -1.9859637 1.3180619
0.083587348 -1.9877238 1.3175234
0.085665613 -1.9866029 1.3174419
0.029261051 -1.9824262 1.3175782
0.031954959 -1.9824702 1.3177661
0.03773123 -1.9823267 1.317281
0.042037178 -1.9826312 1.3166314
0.045319334 -1.9828475 1.3199284
0.078317784 -1.9820994 1.3170868
0.0834627 -1.9826173 1.3177946
0.086308487 -1.9824716 1.3174815
0.029308099 -1.9781158 1.3179592
0.032076627 -1.9771729 1.317414
0.037860338 -1.9776546 1.3171028
0.042422082 -1.9775753 1.3172135
0.077875063 -1.9774846 1.3170614
0.084091201 -1.9773417 1.3183153
0.085673876 -1.977525 1.3171588
0.029800247 -1.9704062 1.3187456
0.031720333 -1.9725595 1.3175997
0.037635598 -1.9725205 1.3175584
0.042364128 -1.9726143 1.3166856
0.045278851 -1.973773 1.3173805
0.07786233 -1.9724346 1.3170898
0.083599851 -1.9723538 1.3183264
0.08568453 -1.9724951 1.317222
0.029535366 -1.9670841 1.3177462
0.031608321 -1.967582 1.3175136
0.03777542 -1.9674546 1.3170962
0.042501971 -1.967592 1.3172829
0.078216061 -1.9676813 1.3168683
0.083531387 -1.9674685 1.3176043
0.085816465 -1.9674631 1.3174579
0.092993408 -1.9666808 1.3153639
0.032851521 -1.9643537 1.3170867
0.037714168 -1.9632359 1.3167903
0.04220501 -1.9626163 1.3173587
0.078499846 -1.961934 1.3169898
0.082514137 -1.9639038 1.317355
0.085874066 -1.9646257 1.3168101
0.092802979 -1.9625866 1.3151299
0.042918749 -1.9592478 1.3169868
0.079187199 -1.9592463 1.3174034
0.081330068 -1.9585813 1.3157574
0.093165606 -1.9588225 1.3150572
0.040793613 -2.4708858 1.3215493
0.029872442 -2.4657795 1.3227389
0.030327059 -2.46665 1.3229481
0.038551662 -2.4668753 1.3219807
0.040836189 -2.4692936 1.3225174
0.018832438 -2.4613707 1.3230714
0.022587977 -2.4617603 1.3229532
0.029170549 -2.4622853 1.3224458
0.030183243 -2.463974 1.321842
0.037961524 -2.462538 1.3223068
0.040447012 -2.4611285 1.3216698
0.082611054 -2.4608967 1.321637
0.085289828 -2.4606087 1.3216288
0.024229376 -2.4575021 1.3226684
0.028695347 -2.4573946 1.3225733
0.031331208 -2.4570255 1.3223301
0.037283752 -2.4574025 1.3229749
0.04128198 -2.456871 1.3225553
0.078964844 -2.4569395 1.3215156
0.082549259 -2.4571905 1.3225139
0.085283123 -2.4555569 1.320913
0.024662623 -2.4532633 1.3232437
0.027144393 -2.4524102 1.3223236
0.031233463 -2.4526203 1.3222896
0.036778942 -2.4526782 1.3222218
0.041751429 -2.4525604 1.3225597
0.077851228 -2.4526958 1.3222154
0.082603306 -2.4524026 1.3225528
0.085126266 -2.4547615 1.3204101
0.026732966 -2.4475346 1.3225981
0.031591177 -2.4471247 1.3226894
0.0367155 -2.4475455 1.3220613
0.041325413 -2.4482348 1.3224859
0.078779854 -2.4475877 1.3229089
0.08248587 -2.4475505 1.3223647
0.026719268 -2.4425685 1.3224744
0.032175306 -2.4424021 1.3228914
0.036998574 -2.442399 1.3217815
0.040915422 -2.4421337 1.3224018
0.078813784 -2.4422567 1.3228559
0.082165971 -2.442538 1.3225354
0.027009927 -2.4376526 1.3225664
0.031795114 -2.4373684 1.3226401
0.03699908 -2.4372928 1.3222046
0.041098252 -2.4367347 1.3237681
0.078537054 -2.4373946 1.3231416
0.081959061 -2.4375334 1.3225201
0.027517308 -2.432529 1.3226117
0.031433217 -2.43262 1.322421
0.03645736 -2.4323754 1.3223238
0.041359734 -2.4326186 1.3229579
0.078627229 -2.4321914 1.3229789
0.082180165 -2.4325883 1.3224427
0.027838249 -2.4275115 1.3225551
0.031179057 -2.427088 1.3221388
0.036706679 -2.4274602 1.3223172
0.040730614 -2.4271352 1.322226
0.07837677 -2.4276252 1.3227646
0.082709111 -2.4275837 1.3224939
0.027225083 -2.4224827 1.3229512
0.030857841 -2.4224527 1.3219061
0.03723738 -2.4223406 1.3222942
0.041296873 -2.4224172 1.3230137
0.078423478 -2.4224129 1.3227952
0.08250621 -2.4225819 1.3223085
0.027384985 -2.4175608 1.3228289
0.030947549 -2.4174447 1.322235
0.037174359 -2.4176362 1.3225347
0.041222427 -2.4177961 1.3220146
0.078633368 -2.4177523 1.3231161
0.082275324 -2.4174454 1.3223288
0.028315417 -2.4123423 1.322749
0.031304128 -2.4125917 1.3221115
0.036968421 -2.4128118 1.3231725
0.041064713 -2.4126606 1.3224537
0.079234742 -2.4126143 1.3236558
0.081872515 -2.4124939 1.3224142
0.029070405 -2.4074466 1.322603
0.031655926 -2.4074192 1.322831
0.036116492 -2.4080946 1.3237524
0.040476337 -2.407861 1.3226123
0.079285294 -2.4074397 1.3236904
0.081633963 -2.4075885 1.3223222
0.028751152 -2.4024775 1.3225778
0.031680387 -2.4025021 1.3227876
0.039630651 -2.4027712 1.3245058
0.040196449 -2.4040174 1.3236948
0.079396732 -2.4026346 1.3237045
0.08163362 -2.4025173 1.3222961
0.028429374 -2.3975015 1.3224343
0.031468149 -2.3976331 1.3227553
0.079480842 -2.3977463 1.3240983
0.081917875 -2.3973956 1.3224273
0.028604599 -2.3925073 1.3224928
0.030669836 -2.3923092 1.3225733
0.079609148 -2.3935311 1.3244876
0.082051374 -2.3924291 1.3226484
0.028942602 -2.387439 1.3225842
0.030578181 -2.3877821 1.3229492
0.079817556 -2.389678 1.3246939
0.082265615 -2.3874712 1.3225926
0.029009297 -2.3827713 1.3228202
0.03062799 -2.3823154 1.32277
0.08190053 -2.3825643 1.3226508
0.028585488 -2.3774905 1.32269
0.030968802 -2.3774512 1.3228048
0.079794548 -2.3769436 1.3243784
0.08197961 -2.3775854 1.3225697
0.028795741 -2.3727026 1.3226633
0.0318418 -2.3722682 1.3226168
0.035227127 -2.3711934 1.3247858
0.07966353 -2.3722355 1.3241531
0.082355663 -2.3726048 1.3224388
0.085214004 -2.3703775 1.3236694
0.02864513 -2.367552 1.3223777
0.031648297 -2.3675063 1.3225204
0.035109881 -2.3674037 1.3246207
0.079358734 -2.3674674 1.3240383
0.082036793 -2.3675592 1.3223104
0.085337684 -2.3670309 1.3226091
0.029194711 -2.3625715 1.3224368
0.031799566 -2.3625731 1.3226132
0.079008311 -2.3626831 1.3233835
0.082209155 -2.3624966 1.3223518
0.085980773 -2.3622704 1.3220776
0.029299593 -2.3574731 1.3223122
0.031474382 -2.3575835 1.322616
0.079535216 -2.3582189 1.323742
0.082667865 -2.3572345 1.3224678
0.08557824 -2.3587205 1.3217435
0.029392511 -2.3527656 1.321856
0.031197859 -2.3524189 1.3227223
0.079727411 -2.3522298 1.3243486
0.082663812 -2.3525419 1.3224241
0.029724462 -2.3482926 1.3213462
0.031217296 -2.3473461 1.3228236
0.079596482 -2.3473985 1.3243309
0.082488045 -2.3475831 1.322399
0.029564248 -2.3423467 1.3223698
0.031698205 -2.3425186 1.3225445
0.079491913 -2.3426576 1.3239888
0.082792833 -2.3425381 1.3225629
0.029352225 -2.3376746 1.3224622
0.031327553 -2.3374596 1.3228672
0.079763502 -2.3379061 1.324387
0.082725741 -2.3375564 1.3227137
0.029486801 -2.3326814 1.3216128
0.030954177 -2.3325429 1.3231128
0.083042219 -2.3325844 1.3225652
0.085154243 -2.3304968 1.3204104
0.029070877 -2.3271387 1.3219539
0.031405505 -2.327601 1.3228949
0.083592549 -2.327637 1.3228086
0.085590258 -2.3271153 1.3211972
0.028990516 -2.322535 1.3225244
0.032003473 -2.3226259 1.3225235
0.084221333 -2.3227806 1.3230367
0.085835814 -2.3220787 1.3218243
0.029101143 -2.3176243 1.322612
0.031681057 -2.3176119 1.3224353
0.084111899 -2.3175619 1.3228312
0.08593557 -2.317589 1.322114
0.029354664 -2.3125529 1.3226095
0.031663749 -2.3125849 1.3222802
0.083944097 -2.312614 1.3228629
0.085921802 -2.3123169 1.322154
0.029205501 -2.3074849 1.3225725
0.032046646 -2.3074207 1.3224885
0.083728135 -2.3074768 1.3226538
0.085677467 -2.3074238 1.3224534
0.029026072 -2.3022881 1.3226411
0.03187988 -2.3024845 1.3224791
0.083274245 -2.3023803 1.3228186
0.085527599 -2.3027027 1.3221959
0.028759141 -2.2975841 1.3223919
0.031673953 -2.2975776 1.3225738
0.083684519 -2.297709 1.3227961
0.085451424 -2.2974081 1.3218356
0.02841452 -2.2924736 1.322566
0.031468857 -2.2925489 1.3225113
0.083767161 -2.2926626 1.3227737
0.085537985 -2.2924416 1.3223485
0.02841584 -2.2874138 1.3225936
0.031343427 -2.2877047 1.322628
0.083545126 -2.2877102 1.322696
0.086218186 -2.2874799 1.3224965
0.02826084 -2.2824533 1.3225209
0.030959612 -2.2825696 1.323168
0.083574168 -2.2826767 1.3232898
0.086300589 -2.2824736 1.3222492
0.028154625 -2.2775266 1.3225452
0.031051338 -2.2775939 1.3230482
0.084067829 -2.2776902 1.3241078
0.08627893 -2.2774541 1.3223037
0.028425237 -2.2724864 1.3226459
0.03036757 -2.2732995 1.3226635
0.084564462 -2.272397 1.324024
0.086584285 -2.2724185 1.322382
0.028090976 -2.2674611 1.3224345
0.084613882 -2.2678576 1.3240888
0.087103486 -2.2673659 1.322369
0.027441882 -2.2624655 1.3225802
0.084738873 -2.2627413 1.324441
0.087633312 -2.2624314 1.3223743
0.027074981 -2.2575107 1.322565
0.084829636 -2.2564538 1.3244401
0.087613218 -2.2575164 1.3223983
0.026846306 -2.2525539 1.3224862
0.084519818 -2.2521832 1.3240346
0.087691255 -2.2525747 1.3222519
0.090024799 -2.2549343 1.3201127
0.02686039 -2.2474537 1.3225213
0.030405963 -2.246299 1.3238552
0.084618576 -2.2480683 1.3239084
0.087382771 -2.2475102 1.3222866
0.027062645 -2.2423851 1.3225858
0.030349396 -2.2426395 1.3236639
0.084726825 -2.2426653 1.3243741
0.087276421 -2.2425463 1.3223749
0.027378194 -2.2374492 1.3226099
0.030271094 -2.2375336 1.3236086
0.084362999 -2.2374716 1.3243356
0.08749216 -2.2375193 1.3223186
0.027495641 -2.2325103 1.3225201
0.03062853 -2.2319829 1.3232515
0.084404163 -2.2323809 1.3243546
0.087432466 -2.2324998 1.3224195
0.027464183 -2.2274935 1.322497
0.031067913 -2.2276268 1.3224894
0.084687926 -2.2286651 1.3245145
0.087158971 -2.2274477 1.3225108
0.027421227 -2.2225282 1.322383
0.031005399 -2.2226713 1.3227531
0.084743716 -2.2222085 1.3246582
0.087298572 -2.2224941 1.3223993
0.027584929 -2.217541 1.3224897
0.03072381 -2.2175539 1.323107
0.084738493 -2.2171822 1.3246807
0.087573834 -2.2174573 1.3223896
0.027729126 -2.2125022 1.3224909
0.03053458 -2.2123642 1.3235377
0.084816605 -2.2117946 1.324481
0.087292552 -2.2125132 1.3224185
0.027810052 -2.2075529 1.3225362
0.030958237 -2.2073946 1.3227456
0.084200338 -2.2071459 1.3239129
0.087253436 -2.2075648 1.3222781
0.027792402 -2.2024593 1.3225162
0.0312314 -2.2026956 1.322996
0.083883591 -2.2024975 1.3238386
0.086754061 -2.2024398 1.322274
0.028349204 -2.1975203 1.3225955
0.030538896 -2.1973565 1.3231322
0.083916605 -2.1973605 1.3232931
0.086801223 -2.1975057 1.3222083
0.028591992 -2.1925368 1.3225698
0.030530792 -2.1921456 1.3233542
0.08402057 -2.1925175 1.3231404
0.086647406 -2.1925626 1.3222684
0.028717257 -2.1874483 1.3226179
0.031198001 -2.1875157 1.3227446
0.083746739 -2.1874158 1.3235147
0.086373411 -2.1874945 1.3222822
0.028843176 -2.1824238 1.3226069
0.031835809 -2.1824682 1.322542
0.083965831 -2.182493 1.3236247
0.086033389 -2.1824131 1.3223436
0.029027974 -2.1775143 1.3226993
0.032339033 -2.1774178 1.3222027
0.083988562 -2.1772747 1.3233242
0.08580251 -2.1775489 1.3222908
0.029424317 -2.1726449 1.3226421
0.031942755 -2.1723118 1.3224741
0.08360754 -2.1725781 1.3230699
0.085854389 -2.1723797 1.3224659
0.029413484 -2.1676171 1.322618
0.032198124 -2.1674821 1.32236
0.083137497 -2.1673687 1.3230631
0.085718296 -2.1675053 1.3224801
0.028876631 -2.1626308 1.3224401
0.032146048 -2.1624796 1.3224369
0.036265425 -2.1612947 1.3240304
0.083074704 -2.1623042 1.3229177
0.085643739 -2.1625814 1.3225046
0.029200545 -2.1577404 1.3223335
0.032113418 -2.1574585 1.3225839
0.036074355 -2.158113 1.3244038
0.079871729 -2.1571164 1.3245317
0.083508402 -2.1574631 1.3226883
0.085378714 -2.1581805 1.3218513
0.029756702 -2.153089 1.321865
0.031911615 -2.1524599 1.3226348
0.035371453 -2.153861 1.3248733
0.083438933 -2.1523778 1.322736
0.085263371 -2.15346 1.3221736
0.029845407 -2.1477513 1.3219264
0.031881694 -2.1474488 1.3225652
0.079906002 -2.1465964 1.3245823
0.083127983 -2.1475141 1.3226821
0.085191257 -2.1491728 1.322506
0.031949427 -2.1424444 1.3225591
0.079772241 -2.1416757 1.3243823
0.083053 -2.1425383 1.322686
0.085208885 -2.1422374 1.3206545
0.032267939 -2.1375198 1.3224779
0.079261042 -2.1370761 1.3242439
0.082912922 -2.1374862 1.3226246
0.085340559 -2.1390355 1.3206905
0.032516271 -2.1324952 1.3225008
0.079421155 -2.1330969 1.3240387
0.082493618 -2.132448 1.3224748
0.032515217 -2.1275249 1.3225901
0.036941402 -2.1262269 1.3242296
0.079474233 -2.127352 1.324276
0.082404524 -2.1275249 1.3225412
0.032955073 -2.1225352 1.3226084
0.036557157 -2.122566 1.324154
0.079184428 -2.1221008 1.3239202
0.082330912 -2.1225421 1.3226216
0.033265509 -2.1176097 1.3224934
0.035307448 -2.1173682 1.3230203
0.078194156 -2.1175952 1.3231126
0.082535133 -2.1174035 1.3226064
0.032903075 -2.1125183 1.3225563
0.035225973 -2.113049 1.3216766
0.078818612 -2.1128943 1.3239566
0.08240211 -2.1124363 1.322504
0.032567151 -2.1075449 1.3225163
0.035840351 -2.1071424 1.3231748
0.079054713 -2.1076784 1.3237408
0.082427405 -2.1075337 1.3225766
0.085231155 -2.1069477 1.3230228
0.033371732 -2.1025372 1.3225811
0.035777651 -2.1024983 1.3227386
0.079290479 -2.1024694 1.3237072
0.082242951 -2.1026063 1.3225635
0.033041026 -2.097466 1.3225586
0.035670549 -2.0978146 1.3227682
0.079100952 -2.0976336 1.3238463
0.081996076 -2.0974269 1.3225161
0.032635313 -2.0924265 1.3224838
0.035116084 -2.0930486 1.3209618
0.079360016 -2.0934341 1.3242959
0.08222723 -2.0924599 1.3225607
0.032761615 -2.0874794 1.3225167
0.036861397 -2.0872016 1.3241365
0.079839163 -2.0888891 1.3246833
0.082084008 -2.0875075 1.3225627
0.032823768 -2.0825667 1.3225199
0.036310524 -2.0822105 1.3244832
0.079546459 -2.0823634 1.3234801
0.082422294 -2.0824177 1.3226255
0.03247508 -2.0774715 1.3225725
0.03629414 -2.0772603 1.3245876
0.07939437 -2.0775292 1.3241835
0.08273343 -2.0775466 1.3225654
0.032003786 -2.0724652 1.3225313
0.035732649 -2.0734649 1.3243864
0.079153225 -2.0723562 1.3241856
0.082716748 -2.0725195 1.3225108
0.029797899 -2.0664735 1.3217707
0.032022797 -2.0675652 1.32251
0.035611004 -2.0657454 1.3244629
0.079157673 -2.067749 1.3241189
0.082679108 -2.0674839 1.3225554
0.029529279 -2.062434 1.3218668
0.032453988 -2.0624917 1.3226292
0.079593889 -2.0628736 1.3245239
0.082833603 -2.0624652 1.3225838
0.029780304 -2.0580325 1.3219355
0.03211778 -2.0573654 1.3225965
0.079360433 -2.0571606 1.3243698
0.083212897 -2.0575204 1.3226979
0.085240819 -2.0578778 1.3208694
0.029713869 -2.0527792 1.321593
0.031808563 -2.0524194 1.3227636
0.079608098 -2.053679 1.3246205
0.083204642 -2.0525115 1.3228372
0.085189141 -2.0512586 1.3213415
0.029807899 -2.0483696 1.3206544
0.031420253 -2.0474474 1.3225924
0.079676665 -2.0469592 1.3248866
0.083045825 -2.0474324 1.3227811
0.085190274 -2.0485091 1.3222919
0.029499779 -2.0415573 1.322737
0.031241039 -2.0429165 1.3224993
0.079773545 -2.0438244 1.3246795
0.083243363 -2.0425777 1.3228464
0.085332423 -2.0406747 1.3223828
0.029498033 -2.0382307 1.3227328
0.03162118 -2.0372005 1.322404
0.079871066 -2.0361557 1.324942
0.083170176 -2.0372944 1.3228922
0.085355654 -2.0384851 1.3219819
0.029597655 -2.0309076 1.321579
0.03168704 -2.0325685 1.3225673
0.035468377 -2.030895 1.3245854
0.079808846 -2.0322199 1.3248866
0.083337225 -2.0324628 1.3227545
0.085098319 -2.0318468 1.3211069
0.029508334 -2.027452 1.3221681
0.031628598 -2.0275037 1.3228745
0.035916205 -2.0272691 1.3241074
0.083442397 -2.0275807 1.3227031
0.085136771 -2.027369 1.3211238
0.029304789 -2.0229194 1.3219974
0.031785171 -2.0223064 1.3228432
0.036170561 -2.0231705 1.323817
0.082985185 -2.0225446 1.3226237
0.085413456 -2.0216706 1.3208017
0.029307697 -2.0177524 1.3215498
0.031937797 -2.0174379 1.3227663
0.079786196 -2.0168862 1.3245819
0.083015122 -2.0174603 1.3227494
0.08511243 -2.0181851 1.3210738
0.0296498 -2.0134494 1.3213592
0.031984869 -2.012377 1.3226237
0.079577036 -2.0135558 1.3247212
0.082783826 -2.0124638 1.3226625
0.085055768 -2.0136099 1.3202229
0.029772831 -2.0065229 1.3216922
0.031606678 -2.0076437 1.3225595
0.035560425 -2.0062029 1.3245316
0.07992579 -2.0065963 1.3247616
0.082766853 -2.0074911 1.3226124
0.085045129 -2.0091667 1.3217731
0.02996999 -2.0046217 1.3222796
0.031509172 -2.0024683 1.3225341
0.035629146 -2.0040777 1.3239752
0.079658225 -2.0018053 1.3245664
0.083263353 -2.0025289 1.3226231
0.08512155 -2.0003932 1.3211602
0.029551597 -1.9965364 1.3219403
0.031707358 -1.9976925 1.3226038
0.079838999 -1.9985884 1.3246398
0.083037421 -1.9974045 1.3228098
0.085052565 -1.9982753 1.322466
0.029177276 -1.9924866 1.3216506
0.031666238 -1.9925189 1.3229018
0.036593791 -1.9910119 1.3231183
0.044854395 -1.9902433 1.3219635
0.046425886 -1.9919175 1.3233095
0.083005242 -1.9924568 1.3227363
0.085451074 -1.9928944 1.3227648
0.029474683 -1.9876096 1.3223165
0.03176092 -1.9874607 1.3227054
0.038066972 -1.9878312 1.3227549
0.042013548 -1.987007 1.3224838
0.045795746 -1.9872373 1.3224338
0.079360127 -1.9866903 1.323572
0.08291623 -1.9876409 1.3226608
0.085417375 -1.9869599 1.3217725
0.029215522 -1.9825931 1.321835
0.031812131 -1.9823929 1.3227019
0.037818175 -1.9824421 1.3226165
0.042220052 -1.9826767 1.3226575
0.045973793 -1.9824926 1.3225137
0.077740788 -1.9825208 1.3226963
0.082862467 -1.9824102 1.3227708
0.085721411 -1.9826059 1.3218894
0.029262304 -1.9775639 1.3216078
0.032125395 -1.9774292 1.3228803
0.037753183 -1.9776115 1.3225038
0.042530894 -1.9777943 1.322763
0.046226133 -1.9772332 1.3238884
0.077290326 -1.9780508 1.3226322
0.082965516 -1.9774112 1.3227028
0.085419029 -1.9787171 1.3212106
0.029779945 -1.9726403 1.3228799
0.031437475 -1.9725277 1.3225662
0.03780375 -1.9724809 1.3227355
0.042205878 -1.9725951 1.3224798
0.046235871 -1.9743372 1.3239173
0.078102171 -1.9721189 1.3229814
0.08298064 -1.9725374 1.3224856
0.085280523 -1.9711432 1.3203793
0.029662162 -1.9680917 1.3204148
0.031599447 -1.9674921 1.3225912
0.037520912 -1.9674966 1.3225344
0.042302877 -1.9675058 1.322807
0.04610268 -1.9656655 1.3245476
0.07751298 -1.9679832 1.3229009
0.083200045 -1.9674011 1.3226506
0.085303389 -1.9673109 1.3211021
0.032256536 -1.9646864 1.3224525
0.036604144 -1.963896 1.3228066
0.04212163 -1.9626232 1.3225038
0.046165813 -1.9647397 1.3247151
0.078069828 -1.9623684 1.3226906
0.082890406 -1.9644321 1.3225387
0.044160619 -1.9594644 1.3208027
0.077161252 -1.9593015 1.3222193
0.041027002 -2.4703 1.326913
0.029390961 -2.4655235 1.3266413
0.030521031 -2.4671073 1.3258526
0.039642833 -2.465709 1.3262182
0.041010801 -2.4675384 1.3275409
0.018495018 -2.4620993 1.3254151
0.022140492 -2.4631059 1.3253478
0.027885577 -2.4620571 1.3277016
0.039061666 -2.4623094 1.3266265
0.041312508 -2.4621434 1.3276603
0.074713647 -2.4614966 1.3298825
0.076203354 -2.4615235 1.3287506
0.081795007 -2.4612877 1.3284097
0.024460439 -2.4586191 1.3259423
0.027542626 -2.4571407 1.3277057
0.030009473 -2.456588 1.3297614
0.03641377 -2.457705 1.3274255
0.041979387 -2.4573946 1.3274771
0.079546273 -2.4563801 1.328584
0.08188878 -2.45718 1.3274596
0.085255772 -2.4585457 1.3270208
0.024897745 -2.4517889 1.3250729
0.028354136 -2.4525437 1.3275582
0.032256648 -2.4516084 1.3291161
0.036127254 -2.4525654 1.3275743
0.042687159 -2.4525068 1.3271358
0.045969237 -2.4512866 1.3280464
0.078336686 -2.4527617 1.3265476
0.082157373 -2.4525266 1.3276048
0.02832967 -2.4474874 1.3275149
0.033357553 -2.4473588 1.3274808
0.036702126 -2.44734 1.3268609
0.041657615 -2.4477279 1.3271226
0.046266455 -2.4484329 1.3275125
0.079132587 -2.4471722 1.3274819
0.081914403 -2.447499 1.3274951
0.027950328 -2.4425719 1.3276632
0.032359723 -2.4422758 1.3271858
0.037305571 -2.442637 1.3267288
0.041470893 -2.4430268 1.3282118
0.078909397 -2.442312 1.3278635
0.081701949 -2.4426911 1.3273704
0.027449682 -2.4374526 1.3276027
0.032090738 -2.4374766 1.3276408
0.03767959 -2.4375167 1.3268957
0.041918654 -2.4373014 1.3274062
0.078668959 -2.4375741 1.3280485
0.081804529 -2.4376802 1.327319
0.027988642 -2.4324775 1.3275001
0.031909022 -2.4326355 1.3276366
0.037366308 -2.4324899 1.3270285
0.042039558 -2.4314573 1.3275362
0.045375343 -2.4323902 1.3282491
0.078172743 -2.4324512 1.3276099
0.081951059 -2.4325504 1.3273857
0.028641518 -2.4274747 1.3274167
0.032621559 -2.4276011 1.3278115
0.037135921 -2.427726 1.3272941
0.041605696 -2.4275365 1.3275933
0.0745603 -2.4266002 1.3296877
0.07744652 -2.4274676 1.3278949
0.081507511 -2.4277205 1.3272372
0.028650168 -2.422564 1.3275357
0.032371439 -2.4222367 1.3279306
0.037183542 -2.4226637 1.3264261
0.042860121 -2.4211318 1.3278576
0.074722447 -2.4231119 1.3296914
0.077485472 -2.4224696 1.327843
0.081434071 -2.4224844 1.3273288
0.028498905 -2.4175739 1.3274962
0.031791545 -2.4175699 1.3278315
0.037634924 -2.4178197 1.3273265
0.042530105 -2.4173956 1.3276863
0.045265697 -2.4157255 1.3270986
0.074986294 -2.4164093 1.3297484
